# .PCD v0.7 - Point Cloud Data file format
VERSION 0.7
FIELDS x y z
SIZE 4 4 4
TYPE F F F
COUNT 1 1 1
WIDTH 1462
HEIGHT 1
VIEWPOINT 0 0 0 1 0 0 0
POINTS 1462
DATA ascii
-0.41504073 4.1939554 0.87820125
-0.41137505 4.1889324 0.87512541
-0.40760922 4.1839151 0.87196565
-0.40370011 4.178915 0.86868548
-0.39964557 4.1739292 0.86528325
-0.39547586 4.168952 0.86178446
-0.39118385 4.1639833 0.85818291
-0.38669872 4.1590381 0.85441947
-0.38207316 4.1541033 0.85053825
-0.37729859 4.1491795 0.84653187
-0.37236118 4.144269 0.84238887
-0.3672235 4.1393795 0.83807778
-0.36186886 4.1345115 0.83358479
-0.35630131 4.1296644 0.82891297
-0.35049319 4.1248403 0.82403946
-0.34440994 4.1200461 0.81893492
-0.33800888 4.1152883 0.81356382
-0.33123374 4.1105752 0.80787897
-0.3240099 4.1059194 0.80181742
-0.31622767 4.1013374 0.79528737
-0.30756593 4.0968871 0.78801942
-0.297786 4.0926065 0.77981305
-0.28563499 4.0887175 0.76961708
-0.25143051 4.0639162 0.74091578
-0.43791556 4.419929 0.90497065
-0.44701147 4.411272 0.91257691
-0.45195937 4.4039469 0.91671443
-0.45535493 4.3971229 0.91955471
-0.45780063 4.3906059 0.9216001
-0.4596417 4.384284 0.92313957
-0.46101475 4.3781128 0.9242878
-0.46200895 4.3720598 0.92511964
-0.46269393 4.3661051 0.92569208
-0.46312833 4.3602271 0.92605495
-0.46333599 4.3544168 0.92622924
-0.46334815 4.3486662 0.92623949
-0.46320128 4.3429608 0.92611599
-0.46287727 4.337306 0.92584586
-0.46239233 4.3316951 0.92544007
-0.46178579 4.326118 0.92493248
-0.46106982 4.3205681 0.92433405
-0.46020532 4.3150568 0.9236114
-0.45922494 4.3095741 0.92279148
-0.45815659 4.304111 0.92189765
-0.45696807 4.298677 0.92090416
-0.4556613 4.2932692 0.91981053
-0.45427823 4.2878771 0.91865373
-0.45277739 4.2825093 0.91739941
-0.45116639 4.277164 0.91605186
-0.44948506 4.271831 0.91464615
-0.44767213 4.2665253 0.91313028
-0.44576287 4.2612362 0.91153359
-0.44378161 4.2559571 0.90987611
-0.44164586 4.2507091 0.90809035
-0.43943024 4.245472 0.90623641
-0.43712568 4.2402472 0.90430927
-0.4346652 4.2350512 0.90225267
-0.43212414 4.2298641 0.90012693
-0.4294703 4.2246943 0.89790797
-0.42666721 4.2195482 0.89556384
-0.4237802 4.2144113 0.89314914
-0.42075944 4.2092924 0.89062214
-0.41760659 4.2041912 0.88798571
-0.41436481 4.1990981 0.88527489
-0.41098356 4.1940222 0.88244653
-0.40747237 4.188962 0.87951088
-0.4038651 4.1839085 0.87649441
-0.40012097 4.1788692 0.87336302
-0.39623284 4.1738462 0.87011099
-0.39223647 4.1688313 0.86676955
-0.38811636 4.1638241 0.86332417
-0.38381696 4.1588392 0.8597281
-0.37939119 4.153862 0.85602617
-0.37482691 4.1488953 0.85220933
-0.37010622 4.1439424 0.84826112
-0.3651824 4.1390095 0.84414411
-0.36008883 4.1340904 0.83988452
-0.35480762 4.1291885 0.83546734
-0.34931564 4.1243043 0.83087492
-0.34359264 4.1194434 0.82608795
-0.33760309 4.1146102 0.82107925
-0.33130622 4.1098104 0.81581378
-0.32465196 4.1050515 0.81024861
-0.31756711 4.1003466 0.8043232
-0.30995464 4.0957084 0.7979579
-0.3016789 4.0911603 0.79103565
-0.29233479 4.0867724 0.78322268
-0.28130293 4.0826492 0.77399588
-0.26579332 4.0792775 0.76102591
-0.2406714 4.0775332 0.74001646
-0.24637604 4.0703135 0.7447865
-0.25205779 4.0631213 0.74953842
-0.25771761 4.0559583 0.75427175
-0.42655897 4.4165168 0.90305829
-0.43681073 4.4075069 0.91160321
-0.44221926 4.4000378 0.91611147
-0.4458766 4.3931298 0.91915941
-0.44851661 4.386548 0.92136025
-0.45046806 4.3801861 0.92298627
-0.45194435 4.3739738 0.92421699
-0.45302391 4.367888 0.9251163
-0.45378184 4.3619008 0.92574835
-0.45428252 4.3559933 0.92616606
-0.45455217 4.3501549 0.92639089
-0.45462775 4.3443742 0.92645311
-0.45449471 4.338654 0.92634273
-0.45420456 4.3329782 0.92610049
-0.45377803 4.3273392 0.92574525
-0.4532311 4.321733 0.92528915
-0.45252609 4.3161678 0.92470121
-0.45170069 4.3106332 0.92401385
-0.45078039 4.3051209 0.9232471
-0.44974232 4.2996368 0.92238116
-0.44857526 4.2941842 0.92140841
-0.44732904 4.2887459 0.92037058
-0.44597507 4.2833319 0.91924095
-0.4444983 4.277945 0.91801119
-0.44295001 4.2725701 0.91671968
-0.44128275 4.26722 0.91533113
-0.43950725 4.2618899 0.91385007
-0.4376595 4.2565713 0.9123106
-0.43567443 4.2512779 0.91065645
-0.43359494 4.2460012 0.90892339
-0.43144178 4.2407331 0.90712857
-0.4291265 4.235497 0.90519857
-0.42673159 4.2302694 0.9032023
-0.4242413 4.2250552 0.90112662
-0.42159176 4.2198682 0.89891815
-0.4188571 4.2146902 0.89663887
-0.41600347 4.2095289 0.89426017
-0.41300058 4.20439 0.89175725
-0.40991116 4.1992583 0.88918209
-0.4066925 4.1941433 0.88649964
-0.40333366 4.1890454 0.88370061
-0.39988351 4.1839542 0.88082409
-0.39630127 4.1788783 0.87783909
-0.39257503 4.1738181 0.87473321
-0.38874578 4.1687641 0.87154126
-0.38479376 4.1637211 0.86824703
-0.3806715 4.1586971 0.86481166
-0.37643075 4.1536813 0.86127663
-0.37206244 4.148674 0.85763621
-0.36752844 4.1436825 0.85385633
-0.36282206 4.1387062 0.84993458
-0.35796404 4.1337414 0.84588456
-0.3529377 4.1287894 0.84169555
-0.34772849 4.1238523 0.83735299
-0.34229088 4.1189384 0.83282161
-0.33661962 4.1140461 0.82809424
-0.33070064 4.1091785 0.82316041
-0.32449651 4.1043382 0.81798983
-0.31796408 4.0995345 0.81254482
-0.31104517 4.0947752 0.80677843
-0.30366135 4.0900712 0.80062461
-0.29558754 4.0854626 0.79389405
-0.28668833 4.0809665 0.78647637
-0.27639937 4.0766802 0.77790165
-0.2633605 4.0728345 0.76703358
-0.24701166 4.0695086 0.75340676
-0.2526834 4.0623293 0.75813341
-0.25833392 4.0551796 0.76284337
-0.25962329 4.0487833 0.76391864
-0.41733646 4.4124031 0.90296149
-0.42742467 4.4034581 0.91134191
-0.43295431 4.3959532 0.91593623
-0.43666673 4.3890257 0.91901994
-0.43942833 4.3824019 0.92131352
-0.44147062 4.3760061 0.92301011
-0.44299531 4.369772 0.92427659
-0.44412804 4.3636618 0.92521811
-0.4449358 4.3576508 0.92588925
-0.44547987 4.3517208 0.92634058
-0.44578075 4.3458638 0.92659044
-0.44586587 4.3400688 0.92666173
-0.44577312 4.3343267 0.92658401
-0.44553351 4.3286242 0.92638564
-0.4451623 4.3229589 0.92607665
-0.44462109 4.317338 0.92562795
-0.44395423 4.3117499 0.92507362
-0.44318509 4.3061881 0.92443466
-0.44229841 4.3006539 0.92369723
-0.4412744 4.2951541 0.92284703
-0.44016695 4.2896709 0.92192698
-0.43895841 4.2842112 0.92092347
-0.43761802 4.27878 0.9198103
-0.43620038 4.2733631 0.91863251
-0.43467808 4.2679682 0.91736817
-0.43303442 4.2625971 0.91600227
-0.43131852 4.2572384 0.91457653
-0.42948055 4.2519021 0.91305017
-0.42753625 4.2465849 0.91143417
-0.42551875 4.2412782 0.90975833
-0.42335773 4.2359982 0.90796351
-0.42110372 4.230731 0.90609169
-0.41877222 4.2254734 0.90415478
-0.41627216 4.2202463 0.90207791
-0.41368961 4.2150273 0.89993167
-0.41100526 4.2098222 0.89770293
-0.40815616 4.2046432 0.89533567
-0.40521908 4.1994734 0.89289618
-0.40216541 4.1943173 0.89035964
-0.39896035 4.1891823 0.88769627
-0.39566422 4.1840544 0.88495827
-0.39224505 4.1789393 0.88211775
-0.38867664 4.1738424 0.87915349
-0.38500857 4.1687522 0.87610698
-0.38122272 4.1636724 0.87296176
-0.37726927 4.1586113 0.86967826
-0.37320566 4.1535573 0.86630249
-0.36902475 4.14851 0.86282945
-0.36466718 4.1434822 0.85920954
-0.36016488 4.1384654 0.8554697
-0.35552168 4.1334581 0.85161257
-0.35072756 4.1284614 0.84762907
-0.34573865 4.1234822 0.84348583
-0.34055352 4.1185203 0.83917809
-0.33517551 4.1135745 0.83470988
-0.32958269 4.1086464 0.83006358
-0.32374763 4.1037412 0.82521725
-0.31763864 4.0988622 0.82014227
-0.31121206 4.0940166 0.81480432
-0.3044157 4.0892115 0.80915785
-0.29717088 4.0844584 0.80313993
-0.28937864 4.0797734 0.79666662
-0.28083348 4.0751896 0.78956819
-0.27113295 4.0707712 0.7815094
-0.25943947 4.0666575 0.7717967
-0.25330758 4.0615406 0.76670218
-0.25894642 4.0544024 0.77138686
-0.26456404 4.0472937 0.77605367
-0.25505567 4.0427046 0.76815486
-0.34137678 4.4348187 0.84764242
-0.40977263 4.4077477 0.9042685
-0.41879106 4.399148 0.9117353
-0.42411089 4.3917122 0.91614056
-0.42780256 4.384789 0.91919637
-0.43052888 4.3781719 0.92145395
-0.43261123 4.371758 0.92317796
-0.43416572 4.365509 0.92446518
-0.43531775 4.3593841 0.92541885
-0.43613815 4.3533611 0.92609811
-0.43668604 4.3474197 0.92655134
-0.43699908 4.3415489 0.92680979
-0.43712282 4.3357329 0.92691278
-0.4370687 4.329968 0.92686844
-0.43687487 4.3242421 0.92670727
-0.43650222 4.3185649 0.92639828
-0.43599558 4.312923 0.92597985
-0.43538046 4.3073092 0.92547011
-0.43464589 4.3017249 0.92486167
-0.43376589 4.2961769 0.92413354
-0.43279767 4.2906489 0.92333174
-0.43173575 4.285141 0.92245245
-0.43052793 4.2796669 0.92145324
-0.42924333 4.2742081 0.92038989
-0.42786336 4.2687683 0.9192462
-0.42635059 4.2633572 0.91799378
-0.42476344 4.2579579 0.91668034
-0.42306948 4.2525792 0.91527843
-0.42125726 4.2472229 0.91377735
-0.41937232 4.2418771 0.9122169
-0.41736197 4.2365532 0.91055202
-0.41524553 4.2312469 0.90880084
-0.41305447 4.2259502 0.90698576
-0.41071391 4.2206793 0.90504789
-0.40827799 4.2154212 0.90303135
-0.40576053 4.2101722 0.90094781
-0.40306687 4.2049532 0.8987174
-0.40028596 4.1997433 0.89641547
-0.39740086 4.1945453 0.89402604
-0.39434838 4.1893721 0.89149833
-0.39120626 4.1842074 0.88889718
-0.38795185 4.1790533 0.88620281
-0.38453865 4.1739202 0.88337684
-0.38102889 4.1687932 0.88047218
-0.37740779 4.1636763 0.87747407
-0.37361979 4.1585793 0.87433743
-0.36972618 4.1534882 0.8711133
-0.36572099 4.1484032 0.86779833
-0.36153793 4.1433392 0.86433411
-0.35722494 4.1382833 0.86076355
-0.35278368 4.1332355 0.85708618
-0.34819627 4.1281972 0.85328913
-0.34340978 4.1231794 0.84932613
-0.33846617 4.1181722 0.84523296
-0.33334899 4.1131783 0.84099674
-0.32804346 4.1081972 0.8366034
-0.32252908 4.1032343 0.83203769
-0.31676793 4.0982943 0.82726884
-0.31073475 4.0933805 0.82227302
-0.30440879 4.0884943 0.81703639
-0.29774332 4.0836425 0.81151819
-0.29066944 4.0788364 0.80566072
-0.28304243 4.0740976 0.79934692
-0.27475882 4.0694413 0.79248881
-0.26558447 4.0649042 0.78489232
-0.25480819 4.0606022 0.77597022
-0.25955868 4.0536284 0.77990413
-0.26516509 4.0465312 0.78454566
-0.26052737 4.0411482 0.78070521
-0.38639355 4.4137897 0.89254737
-0.40328693 4.4027452 0.90648627
-0.41081238 4.3946152 0.9126966
-0.41574144 4.387301 0.91676354
-0.41924858 4.3804331 0.91965795
-0.42186332 4.3738461 0.92181563
-0.42388511 4.367444 0.92348337
-0.42541313 4.361196 0.92474461
-0.42654395 4.3550701 0.92567754
-0.42736936 4.3490372 0.92635846
-0.42792773 4.3430839 0.92681932
-0.42825675 4.3371983 0.92709136
-0.42840672 4.3313642 0.92721462
-0.42838693 4.3255792 0.92719793
-0.42818093 4.3198452 0.9270277
-0.4278357 4.3141489 0.92674351
-0.42737317 4.3084831 0.9263618
-0.42679548 4.3028469 0.92588496
-0.42606091 4.2972503 0.9252789
-0.42523098 4.291676 0.92459416
-0.4243114 4.2861223 0.92383552
-0.42323875 4.2806044 0.92295003
-0.42208362 4.275104 0.92199755
-0.4208436 4.2696199 0.92097402
-0.41945815 4.2641683 0.91983104
-0.41799903 4.258729 0.91862655
-0.41644597 4.2533083 0.91734552
-0.41476297 4.2479124 0.91595674
-0.41300797 4.242527 0.91450906
-0.4111433 4.2371621 0.91296935
-0.40916133 4.2318172 0.91133499
-0.40710616 4.2264814 0.90963936
-0.40491986 4.221168 0.90783453
-0.40262866 4.2158713 0.90594339
-0.40025783 4.2105823 0.90398788
-0.3977294 4.2053204 0.90190148
-0.39510369 4.2000704 0.89973497
-0.39239073 4.194828 0.89749646
-0.38949275 4.1896172 0.89510536
-0.38650703 4.1844134 0.89264131
-0.38342023 4.1792192 0.89009428
-0.38016129 4.1740494 0.8874054
-0.37681007 4.1688862 0.88463926
-0.37335372 4.1637311 0.8817873
-0.36972499 4.1585984 0.87879372
-0.36599565 4.1534715 0.87571621
-0.3621614 4.1483502 0.87255263
-0.35814953 4.1432495 0.86924219
-0.35401654 4.1381564 0.86583185
-0.34976292 4.1330705 0.86232257
-0.34535813 4.1279964 0.85868788
-0.34077764 4.1229382 0.85490847
-0.33605433 4.1178894 0.85101032
-0.33117485 4.1128502 0.84698391
-0.32612729 4.1078234 0.84281874
-0.3208518 4.1028166 0.83846664
-0.31537557 4.0978265 0.83394694
-0.30967736 4.0928535 0.82924557
-0.30373025 4.0879025 0.82433867
-0.29750037 4.0829763 0.81919742
-0.29094243 4.0780835 0.81378603
-0.28399754 4.0732303 0.80805659
-0.27659202 4.0684295 0.80194569
-0.26861477 4.0636954 0.79536319
-0.25972128 4.0590835 0.78802443
-0.26016808 4.0528564 0.78839278
-0.26576495 4.0457726 0.79301095
-0.26356959 4.0399952 0.79119992
-0.36238337 4.4200101 0.88041568
-0.38671923 4.4066563 0.90042853
-0.39709687 4.3976378 0.90896273
-0.40333629 4.3899097 0.91409397
-0.40775323 4.3827529 0.91772723
-0.41095185 4.3759761 0.92035747
-0.41340613 4.3694329 0.92237496
-0.41530681 4.3630619 0.92393851
-0.41677046 4.3568258 0.92514205
-0.41785431 4.3507061 0.92603326
-0.41866255 4.3446689 0.92669868
-0.41921949 4.338707 0.92715645
-0.41955757 4.332809 0.92743516
-0.41971898 4.326962 0.92756796
-0.41968369 4.3211703 0.92753839
-0.4194963 4.3154202 0.9273839
-0.41918802 4.3097019 0.92713022
-0.41876292 4.3040152 0.92678142
-0.41817379 4.2983704 0.92629623
-0.4174788 4.2927504 0.92572451
-0.41669321 4.2871523 0.92507863
-0.41575766 4.28159 0.92430949
-0.41472983 4.2760472 0.92346382
-0.41362095 4.2705212 0.92255306
-0.41236591 4.265028 0.92152047
-0.41103101 4.2595501 0.92042279
-0.40961528 4.2540874 0.91925859
-0.40805817 4.248652 0.91797805
-0.40642929 4.2432294 0.91663837
-0.40470576 4.237823 0.91522121
-0.40285587 4.232439 0.9137001
-0.40093446 4.2270651 0.91211915
-0.39889693 4.2217112 0.91044354
-0.39674473 4.2163754 0.90867424
-0.39451742 4.2110472 0.90684175
-0.39214873 4.2057433 0.90489459
-0.38967371 4.2004533 0.90285826
-0.38711524 4.1951723 0.90075469
-0.38439178 4.1899171 0.89851499
-0.38156343 4.1846743 0.89618874
-0.37864327 4.1794395 0.8937881
-0.3755424 4.1742325 0.89123726
-0.37234783 4.1690321 0.88860989
-0.36905813 4.1638393 0.88590455
-0.36558747 4.1586704 0.88305092
-0.36201954 4.1535072 0.88011718
-0.35835052 4.1483493 0.87709999
-0.35450649 4.1432133 0.87393832
-0.35054708 4.1380844 0.87068248
-0.34647417 4.1329603 0.86733294
-0.34224558 4.1278515 0.86385489
-0.3378582 4.1227555 0.86024666
-0.33333969 4.1176662 0.85653114
-0.32867885 4.1125865 0.85269833
-0.32383275 4.1075215 0.84871292
-0.31880093 4.1024714 0.84457397
-0.3135922 4.0974326 0.84029126
-0.30818963 4.0924082 0.83584762
-0.30257177 4.0874004 0.83122802
-0.29671097 4.0824113 0.82640791
-0.29057693 4.0774474 0.82136416
-0.284127 4.0725136 0.81605887
-0.27730536 4.0676165 0.81045008
-0.27004194 4.0627666 0.8044765
-0.26223421 4.0579796 0.79805565
-0.26077509 4.0520873 0.79685593
-0.26636291 4.0450163 0.80145073
-0.26514316 4.0390873 0.80044794
-0.35108185 4.4223099 0.87881184
-0.37117243 4.4102449 0.89527845
-0.38369918 4.4005561 0.90554523
-0.39108443 4.3924651 0.91159892
-0.39620066 4.3850832 0.91579127
-0.39998889 4.3781171 0.91889691
-0.40285444 4.371438 0.92124557
-0.40510321 4.3649511 0.9230895
-0.40684676 4.3586211 0.92451835
-0.40822148 4.3524041 0.9256444
-0.40924931 4.346292 0.92648721
-0.41001678 4.3402591 0.92711568
-0.41055894 4.3342919 0.92756009
-0.41089797 4.3283839 0.92783785
-0.41103387 4.3225341 0.92794967
-0.4110024 4.31673 0.92792463
-0.41084647 4.3109612 0.92779613
-0.41056275 4.3052254 0.92756343
-0.41011333 4.2995329 0.92719531
-0.40955496 4.2938671 0.92673707
-0.4088943 4.2882271 0.92619586
-0.40809536 4.2826204 0.92554116
-0.40719056 4.2770362 0.9247992
-0.40620279 4.271471 0.92398977
-0.40508032 4.2659364 0.92307019
-0.40386605 4.2604194 0.92207456
-0.40257835 4.2549152 0.92101908
-0.40114713 4.2494421 0.91984653
-0.39964128 4.2439814 0.918612
-0.39805412 4.238534 0.91731143
-0.39633274 4.2331133 0.91589975
-0.39453959 4.2277012 0.91443038
-0.39264798 4.2223063 0.91287971
-0.39063072 4.2169323 0.9112277
-0.38854122 4.2115664 0.90951443
-0.38632989 4.2062201 0.90770197
-0.38400078 4.2008915 0.90579367
-0.3815937 4.1955714 0.90381932
-0.37903619 4.1902742 0.90172434
-0.37636638 4.1849914 0.89953518
-0.37360764 4.1797161 0.89727521
-0.37067914 4.174468 0.89487386
-0.36764121 4.1692305 0.89238477
-0.36451221 4.1639996 0.88981915
-0.36120749 4.1587925 0.88711166
-0.35779977 4.1535931 0.88431859
-0.35429382 4.1484003 0.88144469
-0.35061574 4.1432285 0.87843037
-0.34682465 4.1380634 0.87532234
-0.34292436 4.1329045 0.87212658
-0.3388679 4.1277595 0.86880112
-0.33466554 4.1226273 0.86535716
-0.33033991 4.1175003 0.86181092
-0.32588291 4.1123815 0.85815859
-0.32122612 4.1072803 0.85434127
-0.31642056 4.1021895 0.85040259
-0.31145501 4.0971065 0.84633255
-0.30631495 4.0920353 0.84212041
-0.30098081 4.0869784 0.837749
-0.2954042 4.0819426 0.8331778
-0.28960013 4.0769234 0.82841992
-0.28353882 4.0719242 0.82345271
-0.27718449 4.0669513 0.8182447
-0.2704916 4.0620093 0.81275964
-0.26340032 4.0571074 0.80694604
-0.26138115 4.0513206 0.80529237
-0.26695991 4.0442615 0.80986381
-0.26585793 4.0383234 0.80896139
-0.34390759 4.4233389 0.88062072
-0.35868812 4.4128919 0.892694
-0.37120366 4.403192 0.90291762
-0.37930822 4.3948698 0.90953803
-0.38492203 4.3873248 0.9141233
-0.38914251 4.3802171 0.91757083
-0.39236856 4.3734179 0.92020726
-0.39488125 4.3668413 0.92225957
-0.39691019 4.360415 0.9239161
-0.39848161 4.3541288 0.92519975
-0.39975238 4.3479352 0.92623854
-0.40071464 4.341835 0.92702389
-0.40143156 4.3358068 0.92760992
-0.40194988 4.3298383 0.92803288
-0.40224957 4.3239312 0.92827773
-0.40238094 4.3180723 0.92838573
-0.40235901 4.3122559 0.92836714
-0.40221071 4.3064733 0.9282465
-0.40189648 4.300734 0.92798924
-0.40146613 4.2950249 0.92763877
-0.40092945 4.2893419 0.92720008
-0.40025759 4.2836933 0.92665076
-0.39947462 4.278069 0.92601085
-0.39860153 4.2724652 0.92529774
-0.39760566 4.2668891 0.92448425
-0.39650702 4.2613344 0.92358732
-0.3953352 4.255794 0.92263007
-0.39403319 4.2502804 0.92156649
-0.39264655 4.2447824 0.92043424
-0.39119124 4.239295 0.91924548
-0.38959265 4.2338371 0.91793942
-0.38792539 4.2283883 0.9165771
-0.38617492 4.2229524 0.9151473
-0.38429046 4.2175412 0.91360784
-0.38233662 4.2121372 0.91201138
-0.38027644 4.2067504 0.91032863
-0.37808919 4.2013831 0.90854311
-0.37582731 4.1960244 0.90669465
-0.37343383 4.1906853 0.90473986
-0.37091732 4.1853633 0.90268421
-0.3683176 4.1800494 0.90056014
-0.36556244 4.1747584 0.89830971
-0.36268663 4.1694822 0.89596057
-0.35971665 4.1642132 0.89353514
-0.35658264 4.1589675 0.89097452
-0.35333443 4.1537323 0.88832092
-0.34998989 4.1485033 0.88558888
-0.34647989 4.1432934 0.88272166
-0.34285259 4.1380935 0.87975907
-0.33912134 4.1328983 0.87671018
-0.33523583 4.1277194 0.8735373
-0.33120847 4.1225514 0.87024689
-0.32706523 4.1173882 0.86686301
-0.32278895 4.1122332 0.86336994
-0.31832767 4.1070962 0.85972595
-0.31373191 4.1019654 0.85597134
-0.30898881 4.0968432 0.85209703
-0.30408859 4.0917292 0.84809375
-0.29896808 4.0866356 0.84391093
-0.29366541 4.0815525 0.83958006
-0.28816438 4.0764813 0.83508563
-0.28244042 4.0714273 0.83041048
-0.27646565 4.0663924 0.82553005
-0.27020931 4.0613813 0.82041883
-0.26362514 4.0563984 0.81504035
-0.26198649 4.0505567 0.81370163
-0.26755285 4.0435104 0.81824851
-0.26581383 4.0376854 0.81682849
-0.3495152 4.414525 0.89285398
-0.36023355 4.4053612 0.90158057
-0.36840487 4.3970079 0.90823197
-0.37421155 4.3893919 0.91295958
-0.37861061 4.3822179 0.9165411
-0.38201666 4.3753529 0.91931438
-0.38479996 4.3686838 0.92157912
-0.38697886 4.3622022 0.92335415
-0.38878775 4.3558359 0.92482638
-0.39020705 4.3495879 0.92598176
-0.39136052 4.343421 0.92692089
-0.39224982 4.3373332 0.92764521
-0.3929162 4.3313112 0.92818737
-0.39336658 4.3253522 0.92855334
-0.39364004 4.3194432 0.92877626
-0.39375591 4.3135781 0.92887115
-0.39372802 4.3077531 0.92884874
-0.39354587 4.3019691 0.92870021
-0.39322805 4.2962203 0.92844105
-0.39280844 4.2904959 0.92809963
-0.39225507 4.2848063 0.9276495
-0.39158416 4.2791443 0.92710352
-0.3908236 4.2735023 0.92648387
-0.38994455 4.2678871 0.92576838
-0.38895893 4.2622952 0.92496586
-0.38789821 4.2567182 0.92410207
-0.38671899 4.2511663 0.92314267
-0.38544726 4.2456322 0.92210698
-0.38410664 4.2401094 0.92101598
-0.38263798 4.2346115 0.91982007
-0.38109326 4.229126 0.9185617
-0.37947774 4.2236514 0.91724658
-0.37772369 4.2182012 0.91581917
-0.37590027 4.2127604 0.91433501
-0.37398887 4.2073321 0.9127779
-0.37194228 4.2019272 0.91111159
-0.36982155 4.1965313 0.90938544
-0.36758757 4.1911502 0.90756726
-0.36522245 4.1857891 0.90564132
-0.36277461 4.1804371 0.90364861
-0.36019111 4.1751041 0.90154505
-0.35747671 4.1697884 0.89933515
-0.354671 4.1644812 0.89705133
-0.35170889 4.1591945 0.89464021
-0.34862137 4.1539221 0.8921268
-0.34543753 4.1486564 0.88953471
-0.34209704 4.1434102 0.88681531
-0.33863258 4.1381745 0.88399458
-0.3350668 4.1329441 0.88109112
-0.33134937 4.1277294 0.87806463
-0.32749391 4.1225262 0.87492585
-0.32352829 4.1173282 0.87169743
-0.31942606 4.1121392 0.86835718
-0.31515217 4.1069665 0.86487794
-0.31075239 4.1017985 0.86129594
-0.30621815 4.0966372 0.85760498
-0.3015089 4.0914893 0.85377073
-0.29661918 4.0863543 0.84979057
-0.29156542 4.0812283 0.84567666
-0.28633332 4.0761123 0.84141684
-0.28090572 4.0710082 0.83699822
-0.27525949 4.0659204 0.83240151
-0.26934671 4.0608535 0.8275876
-0.26317 4.0558066 0.82255864
-0.26258826 4.0497932 0.82208514
-0.26814604 4.0427604 0.82661009
-0.26520681 4.0371413 0.8242166
-0.34197068 4.415659 0.89436388
-0.35095882 4.4070139 0.90165639
-0.35841918 4.3988638 0.90771008
-0.364115 4.3912711 0.91233182
-0.36847448 4.3840961 0.91586828
-0.37202811 4.3771763 0.91875219
-0.37485433 4.3704829 0.9210453
-0.37723517 4.3639302 0.92297649
-0.3791337 4.3575258 0.92451763
-0.38073969 4.351213 0.92582059
-0.38201261 4.3450012 0.92685366
-0.38304329 4.3388619 0.92768955
-0.38384485 4.3327913 0.92833996
-0.38442922 4.3267841 0.92881346
-0.38481593 4.3208332 0.92912745
-0.38504648 4.3149271 0.92931461
-0.38513303 4.3090591 0.9293859
-0.38506174 4.3032351 0.92932749
-0.38485837 4.2974463 0.92916203
-0.3845377 4.2916861 0.92890191
-0.38409972 4.2859564 0.92854619
-0.38352919 4.2802582 0.92808437
-0.38287187 4.27458 0.92755127
-0.38210583 4.2689281 0.92692924
-0.38122416 4.2632999 0.92621398
-0.38026834 4.257688 0.92543817
-0.37920308 4.252099 0.92457294
-0.37804103 4.2465301 0.92363071
-0.37681293 4.2409711 0.92263436
-0.37546849 4.2354355 0.92154384
-0.37404132 4.2299142 0.9203856
-0.37255383 4.2244015 0.91917896
-0.37093019 4.2189131 0.91786122
-0.36923695 4.2134352 0.91648722
-0.36746812 4.2079682 0.91505265
-0.36555934 4.2025251 0.91350341
-0.36357832 4.1970901 0.91189575
-0.36150002 4.1916685 0.91020942
-0.35928202 4.1862693 0.9084096
-0.35698485 4.1808782 0.90654588
-0.35456562 4.1755042 0.90458417
-0.3520093 4.1701503 0.90250921
-0.34936476 4.1648035 0.90036345
-0.34658074 4.1594753 0.89810443
-0.34365582 4.1541653 0.89573097
-0.34063649 4.1488624 0.89328122
-0.33746648 4.1435761 0.89070988
-0.33416343 4.1383052 0.88802958
-0.33076191 4.1330404 0.8852694
-0.32721448 4.1277895 0.8823905
-0.32352471 4.1225514 0.87939787
-0.31973219 4.1173182 0.87631989
-0.31580091 4.1120954 0.8731308
-0.3117075 4.1068873 0.86980963
-0.3074944 4.1016846 0.86639071
-0.30315614 4.0964866 0.86287045
-0.29863286 4.0913043 0.85920048
-0.29395771 4.0861316 0.85540652
-0.2891314 4.0809655 0.85149121
-0.28414416 4.0758085 0.84744501
-0.278965 4.0706635 0.84324265
-0.27356839 4.0655336 0.83886313
-0.26796412 4.0604177 0.83431578
-0.26213217 4.0553164 0.82958436
-0.26318717 4.0490346 0.830441
-0.26873589 4.0420136 0.83494258
-0.26414156 4.0366735 0.83121562
-0.34299397 4.408267 0.90282249
-0.34961891 4.400362 0.90818048
-0.35475183 4.3929272 0.91233087
-0.35890722 4.3858032 0.91569114
-0.36232901 4.3789101 0.91845798
-0.36525798 4.3721762 0.92082667
-0.36765313 4.3656073 0.92276335
-0.3696928 4.3591509 0.92441225
-0.37134409 4.3528142 0.92574835
-0.37275314 4.3465519 0.92688775
-0.37386847 4.3403778 0.92778945
-0.37476468 4.33427 0.928514
-0.37545204 4.3282232 0.92907023
-0.37594485 4.3222322 0.92946911
-0.37626314 4.3162913 0.92972589
-0.37643886 4.310389 0.92986822
-0.37646508 4.3045292 0.92988873
-0.37635326 4.2987041 0.92979884
-0.37612343 4.2929111 0.9296124
-0.37578321 4.2871451 0.92933774
-0.37531376 4.2814112 0.92895794
-0.37474608 4.275701 0.92849994
-0.37408304 4.2700124 0.92796326
-0.37329793 4.2643514 0.92732763
-0.3724401 4.2587061 0.92663431
-0.3714838 4.2530804 0.9258616
-0.37042499 4.2474771 0.92500472
-0.36930346 4.2418833 0.92409754
-0.36807847 4.2363114 0.92310739
-0.36676693 4.2307534 0.92204762
-0.36539817 4.2252045 0.92094088
-0.36390853 4.2196784 0.91973519
-0.36234188 4.2141623 0.91846895
-0.36071444 4.2086554 0.91715288
-0.35894036 4.2031741 0.91571784
-0.3570981 4.1977015 0.9142282
-0.35517168 4.1922393 0.91267037
-0.35309863 4.1868024 0.91099358
-0.35094857 4.1813731 0.90925574
-0.34869266 4.1759572 0.90743113
-0.34629035 4.1705642 0.90548825
-0.34380317 4.1651793 0.90347695
-0.34119105 4.1598101 0.9013648
-0.3384304 4.1544614 0.89913321
-0.33557749 4.1491203 0.89682531
-0.33258247 4.1437955 0.8944037
-0.32944369 4.1384873 0.89186525
-0.32620645 4.1331863 0.88924813
-0.32282877 4.1278992 0.88651562
-0.31930518 4.1226263 0.88366747
-0.31568003 4.1173582 0.88073516
-0.31192088 4.1121016 0.8776958
-0.3080008 4.1068592 0.87452531
-0.30396771 4.1016216 0.87126398
-0.29981542 4.0963883 0.86790609
-0.29547334 4.0911732 0.86439586
-0.29099774 4.0859632 0.86077595
-0.28638482 4.0807605 0.85704637
-0.28162289 4.0755634 0.85319567
-0.27664804 4.0703845 0.84917283
-0.27150512 4.0652132 0.84501386
-0.26617885 4.0600514 0.84070659
-0.26065087 4.0549016 0.83623624
-0.26378703 4.0482764 0.83877277
-0.26826859 4.0414433 0.84239602
-0.26267481 4.0362735 0.83787346
-0.34148932 4.4016552 0.90921736
-0.34599805 4.3943982 0.91285181
-0.3498466 4.3873549 0.9159534
-0.35315871 4.3804851 0.91862297
-0.35598564 4.3737702 0.92090106
-0.35839653 4.3671861 0.92284441
-0.36042094 4.360723 0.92447519
-0.36215377 4.354352 0.92587185
-0.3635664 4.3480783 0.92701006
-0.36477089 4.3418679 0.92798162
-0.36571836 4.3357353 0.92874527
-0.36647439 4.329658 0.92935371
-0.3670249 4.3236413 0.92979717
-0.36742282 4.317667 0.93011808
-0.36766267 4.311738 0.93031144
-0.36776495 4.3058462 0.93039489
-0.3677237 4.299993 0.93036175
-0.36757421 4.294168 0.93024111
-0.3673141 4.2883711 0.93003106
-0.36692023 4.2826071 0.92971349
-0.36644435 4.2768631 0.92932987
-0.36586881 4.271143 0.92886662
-0.36517239 4.26545 0.92830539
-0.36440325 4.2597723 0.92768502
-0.36354733 4.2541132 0.92699552
-0.36258888 4.2484751 0.92622256
-0.36157084 4.2428484 0.9254024
-0.36046052 4.2372379 0.92450714
-0.35926461 4.2316451 0.92354417
-0.35801387 4.2260604 0.92253518
-0.35665274 4.2204952 0.92143869
-0.35521436 4.214942 0.92027998
-0.3537159 4.2093973 0.91907239
-0.35208488 4.2038765 0.91775727
-0.35037875 4.1983652 0.91638184
-0.3486011 4.1928635 0.91495013
-0.34667134 4.1873875 0.91339493
-0.34466743 4.1819191 0.91177988
-0.34257126 4.1764646 0.91009045
-0.3403213 4.1710324 0.90827703
-0.33798838 4.1656094 0.90639615
-0.33554482 4.1601992 0.90442681
-0.33294582 4.1548114 0.90233231
-0.33025646 4.1494312 0.90016556
-0.32744169 4.1440663 0.89789629
-0.32446647 4.1387215 0.89549923
-0.32139587 4.1333833 0.89302444
-0.31819153 4.1280584 0.89044142
-0.31483293 4.1227503 0.88773561
-0.31137371 4.1174483 0.88494778
-0.30778599 4.1121564 0.882056
-0.30403709 4.1068792 0.87903452
-0.30017853 4.1016073 0.87592459
-0.29620433 4.0963402 0.87272167
-0.29204106 4.0910916 0.86936665
-0.28775692 4.0858474 0.86591411
-0.28334284 4.0806084 0.86235642
-0.27876925 4.0753784 0.85867023
-0.27401257 4.0701623 0.85483694
-0.26910233 4.0649524 0.85087967
-0.26402712 4.0597496 0.8467896
-0.25883412 4.0545454 0.84260464
-0.26438308 4.0475225 0.84707642
-0.26620269 4.0411386 0.84854198
-0.26084805 4.0359325 0.84422636
-0.33803892 4.3956299 0.91403723
-0.34144354 4.38871 0.9167726
-0.34449863 4.381906 0.91922665
-0.34712934 4.3752394 0.92133999
-0.34944296 4.3686733 0.92319775
-0.35142016 4.3622141 0.92478633
-0.35310197 4.3558474 0.92613602
-0.35454869 4.3495522 0.92729926
-0.35572672 4.343339 0.92824459
-0.35672069 4.337182 0.92904353
-0.35749173 4.3310909 0.92966318
-0.35809183 4.3250494 0.93014455
-0.35851192 4.3190594 0.93048263
-0.35880494 4.3131042 0.93071818
-0.35895395 4.307189 0.93083644
-0.35897303 4.3013091 0.93085241
-0.35887122 4.2954612 0.93077135
-0.35868359 4.2896352 0.93062019
-0.35836005 4.283843 0.93036032
-0.3579483 4.2780724 0.93002939
-0.35744977 4.2723222 0.92962933
-0.35683131 4.2665992 0.92913246
-0.35614586 4.2608914 0.92858219
-0.35538149 4.2551994 0.92796826
-0.35452032 4.2495284 0.92727566
-0.3536036 4.2438674 0.92654014
-0.35260701 4.2382212 0.92573929
-0.35152555 4.2325912 0.92487097
-0.35038996 4.2269692 0.92395878
-0.34915781 4.2213655 0.9229691
-0.34784532 4.2157755 0.92191482
-0.34647727 4.2101922 0.92081523
-0.34498715 4.2046313 0.91961837
-0.34341741 4.1990824 0.91835856
-0.34178281 4.1935401 0.91704583
-0.3400023 4.1880255 0.9156146
-0.33814263 4.1825194 0.91412187
-0.33620405 4.1770225 0.91256428
-0.33410406 4.1715522 0.91087794
-0.33192277 4.1660905 0.90912604
-0.3296454 4.1606402 0.90729594
-0.32720518 4.1552143 0.9053359
-0.32467508 4.1497965 0.90330434
-0.32203436 4.1443915 0.90118241
-0.31922889 4.1390076 0.89893007
-0.31632662 4.1336312 0.8965981
-0.31329799 4.1282682 0.89416647
-0.31010628 4.1229253 0.89160156
-0.30681396 4.1175876 0.88895798
-0.30339837 4.1122594 0.88621449
-0.29981709 4.1069484 0.88333726
-0.29613018 4.1016426 0.88037705
-0.29232883 4.0963426 0.87732315
-0.28834391 4.0910592 0.87412286
-0.28424239 4.0857816 0.87082744
-0.28002048 4.0805073 0.86743617
-0.27562833 4.0752454 0.86390877
-0.27107668 4.0699935 0.86025286
-0.26638365 4.0647464 0.85648298
-0.26153851 4.0595055 0.85259128
-0.25943851 4.0537806 0.85090494
-0.26497746 4.0467696 0.85535407
-0.26383209 4.0408845 0.85443354
-0.25337672 4.0365114 0.8460362
-0.33349633 4.3899269 0.91798091
-0.33624697 4.3832049 0.92018342
-0.33865738 4.3765931 0.92211342
-0.34079385 4.370069 0.92382383
-0.34263301 4.3636403 0.92529511
-0.34424686 4.3572812 0.92658782
-0.34561539 4.3509989 0.92768288
-0.34678984 4.3447771 0.92862248
-0.34773135 4.338624 0.92937708
-0.34850883 4.33252 0.92999983
-0.34909797 4.3264704 0.93047071
-0.34954214 4.3204622 0.93082643
-0.3498435 4.3144951 0.93106771
-0.3500278 4.3085594 0.93121552
-0.35006976 4.3026633 0.93124819
-0.35001397 4.296792 0.93120408
-0.34986591 4.2909451 0.93108487
-0.34958887 4.2851291 0.93086433
-0.34923244 4.2793341 0.93057823
-0.34879732 4.2735572 0.93023014
-0.34824991 4.2678061 0.92979169
-0.34764385 4.2620673 0.92930675
-0.34696984 4.2563434 0.9287672
-0.34620214 4.2506394 0.92815304
-0.34538698 4.2449431 0.92750049
-0.3445015 4.2392612 0.92679143
-0.34353089 4.2335954 0.92601466
-0.34251571 4.2279363 0.92520189
-0.34141183 4.2222934 0.9243176
-0.34022808 4.2166643 0.92337012
-0.33898926 4.2110434 0.92237878
-0.33763933 4.2054415 0.92129803
-0.33621001 4.1998525 0.92015386
-0.33471584 4.194272 0.91895723
-0.33308458 4.1887155 0.91765285
-0.33137274 4.1831703 0.91628122
-0.32958603 4.1776333 0.91485143
-0.32763863 4.1721244 0.91329312
-0.32560921 4.1666245 0.91166854
-0.32349277 4.1611333 0.90997362
-0.32120895 4.1556692 0.9081459
-0.3188374 4.1502132 0.90624738
-0.31636691 4.1447682 0.9042697
-0.31372523 4.1393466 0.90215492
-0.31099057 4.1339335 0.899966
-0.30814433 4.1285295 0.89768744
-0.30511999 4.1231494 0.89526606
-0.30199599 4.1177754 0.892766
-0.29875684 4.1124115 0.890172
-0.29534197 4.1070666 0.8874383
-0.29182506 4.1017265 0.88462281
-0.28819633 4.0963917 0.88171911
-0.28438354 4.0910754 0.87866616
-0.2804606 4.0857635 0.87552571
-0.27642155 4.0804567 0.872293
-0.27220917 4.0751624 0.86892033
-0.26785231 4.0698757 0.86543298
-0.26336193 4.0645943 0.86183906
-0.25873232 4.0593176 0.85813284
-0.260041 4.0530176 0.85918021
-0.26556921 4.0460196 0.86360645
-0.26117754 4.0406785 0.8600893
-0.242908 4.0375767 0.8454659
-0.33038926 4.3778839 0.92307448
-0.33230686 4.3714151 0.92460394
-0.33402371 4.3650112 0.92597389
-0.33548665 4.358686 0.92714143
-0.33677983 4.3524151 0.92817307
-0.33785152 4.346211 0.9290278
-0.33875155 4.3400593 0.92974544
-0.33946967 4.3339601 0.93031931
-0.34004569 4.3279033 0.93077779
-0.34046531 4.3218913 0.931113
-0.34076309 4.3159132 0.93135118
-0.34094334 4.309968 0.93149424
-0.3409996 4.3040562 0.93153906
-0.3409636 4.2981691 0.93151021
-0.34083629 4.292305 0.93140841
-0.34058595 4.2864723 0.93120909
-0.34026313 4.2806573 0.93095255
-0.33987856 4.2748561 0.93064547
-0.33939338 4.2690792 0.9302578
-0.33886623 4.2633104 0.92983747
-0.33827853 4.2575531 0.92936802
-0.33760953 4.2518144 0.92883539
-0.33690023 4.2460823 0.92826915
-0.33611965 4.2403641 0.92764664
-0.33526754 4.2346611 0.92696691
-0.33437443 4.2289624 0.92625427
-0.33339643 4.2232814 0.92547369
-0.33234406 4.2176123 0.92463374
-0.33124375 4.2119503 0.92375636
-0.33003354 4.2063084 0.92279053
-0.32874537 4.2006793 0.92176318
-0.32739615 4.1950583 0.92068744
-0.3259151 4.1894603 0.91950464
-0.32435107 4.1838756 0.918257
-0.32271409 4.1782985 0.91695142
-0.32092452 4.1727486 0.91552329
-0.31904626 4.1672096 0.91402531
-0.31708717 4.1616793 0.91246247
-0.31496143 4.1561756 0.91076589
-0.31274605 4.1506815 0.90899849
-0.31044245 4.1451964 0.907161
-0.30796242 4.1397376 0.90518188
-0.3053894 4.1342864 0.90312982
-0.30272007 4.1288433 0.90099978
-0.29986787 4.1234255 0.8987236
-0.29691553 4.1180153 0.89636922
-0.29385424 4.1126122 0.8939271
-0.29060769 4.1072326 0.89133644
-0.28726029 4.1018577 0.88866568
-0.28380728 4.0964885 0.88591051
-0.2801652 4.0911393 0.88300586
-0.2764163 4.0857944 0.88001418
-0.27255583 4.0804534 0.87693405
-0.26852012 4.0751266 0.87371492
-0.26434922 4.0698075 0.87038755
-0.26005387 4.0644913 0.86696053
-0.25561357 4.0591826 0.86341739
-0.26064134 4.0522575 0.86742878
-0.26290393 4.0458145 0.86923456
-0.25825596 4.0405173 0.86552668
-0.23239112 4.0386457 0.84489107
-0.32390761 4.3727312 0.92547989
-0.32543111 4.3663731 0.92669177
-0.32677388 4.3600731 0.92775941
-0.32791281 4.3538351 0.92866445
-0.32889533 4.3476453 0.92944574
-0.32970119 4.3415089 0.93008661
-0.33035541 4.3354173 0.93060684
-0.33086443 4.3293672 0.93101192
-0.33124113 4.3233562 0.93131113
-0.33151364 4.3173742 0.93152785
-0.33167148 4.3114233 0.93165398
-0.33170748 4.3055053 0.93168283
-0.33165598 4.2996101 0.9316411
-0.33152652 4.293735 0.93153882
-0.33129454 4.2878861 0.93135309
-0.3310101 4.2820492 0.93112779
-0.33066964 4.2762251 0.93085647
-0.33024502 4.270421 0.93051934
-0.32978559 4.2646241 0.93015361
-0.32928514 4.2588344 0.92975593
-0.32871509 4.2530603 0.92930245
-0.32810855 4.247292 0.92882109
-0.32744193 4.2415361 0.92829013
-0.32671499 4.2357922 0.92771292
-0.32594752 4.2300544 0.9271028
-0.32509851 4.2243323 0.92642689
-0.32418513 4.2186213 0.92570138
-0.3232255 4.2129183 0.92493749
-0.32215667 4.2072344 0.92408776
-0.32101536 4.2015634 0.92318106
-0.31981754 4.1958995 0.92222834
-0.31848669 4.1902604 0.92117023
-0.31707454 4.1846333 0.920048
-0.31558824 4.1790161 0.91886616
-0.31395483 4.1734252 0.91756725
-0.31223178 4.1678462 0.91619706
-0.310426 4.1622772 0.91476154
-0.30846071 4.1567335 0.91319895
-0.30640173 4.1512012 0.91156101
-0.30425572 4.1456776 0.90985584
-0.30194044 4.1401796 0.90801454
-0.29952979 4.1346903 0.90609789
-0.2970283 4.1292105 0.90410852
-0.29434586 4.1237545 0.90197515
-0.29156446 4.1183052 0.89976382
-0.28868604 4.1128645 0.89747524
-0.28561044 4.1074486 0.89503026
-0.2824347 4.1020384 0.89250493
-0.27915549 4.0966334 0.88989735
-0.27568674 4.0912504 0.88713932
-0.27210951 4.0858717 0.88429546
-0.26842499 4.0804973 0.88136578
-0.26456475 4.0751386 0.87829638
-0.26057649 4.0697865 0.87512445
-0.25646758 4.0644374 0.8718586
-0.25571012 4.0584993 0.8712554
-0.26124072 4.0514994 0.87565327
-0.25954223 4.0457253 0.87430239
-0.25166845 4.0409584 0.86804271
-0.31681371 4.3677392 0.92741585
-0.31798291 4.3614783 0.9283421
-0.31898713 4.355268 0.92913795
-0.3198278 4.3491073 0.92980409
-0.32052374 4.3429899 0.93035555
-0.32107997 4.3369141 0.93079591
-0.32151771 4.330873 0.93114257
-0.32181597 4.3248701 0.9313798
-0.32201815 4.3188953 0.93154025
-0.322124 4.3129463 0.9316237
-0.32212186 4.3070264 0.93162179
-0.32204986 4.301125 0.93156433
-0.32190204 4.2952423 0.93144798
-0.32167888 4.2893782 0.93127108
-0.32141304 4.2835255 0.93106008
-0.32110357 4.2776814 0.9308145
-0.32074738 4.2718472 0.93053269
-0.32036304 4.2660193 0.93022847
-0.31993341 4.2602005 0.92988777
-0.31946445 4.2543893 0.92951632
-0.31897688 4.2485814 0.92912936
-0.31842494 4.2427864 0.9286921
-0.3178277 4.2370005 0.9282186
-0.3172009 4.2312183 0.92772269
-0.31648993 4.2254534 0.92715883
-0.31572294 4.2196984 0.92655158
-0.31491351 4.2139492 0.92591023
-0.31398988 4.2082243 0.92517829
-0.31300688 4.2025075 0.92439938
-0.31196713 4.1967993 0.9235754
-0.31078815 4.1911182 0.9226408
-0.30953193 4.1854482 0.9216454
-0.30820394 4.1797895 0.92059255
-0.30672669 4.1741562 0.91942215
-0.30516028 4.1685362 0.9181807
-0.30351043 4.1629262 0.91687346
-0.30170536 4.1573424 0.91544366
-0.29980302 4.1517715 0.91393614
-0.29781318 4.1462092 0.912359
-0.29566336 4.1406722 0.91065574
-0.29341269 4.1351452 0.90887165
-0.29107022 4.1296272 0.9070158
-0.28855968 4.1241326 0.90502667
-0.28594518 4.1186476 0.9029541
-0.28323603 4.1131697 0.90080762
-0.28034401 4.1077147 0.89851689
-0.27734208 4.1022682 0.89613724
-0.27423644 4.0968285 0.89367652
-0.27094626 4.0914083 0.89106965
-0.2675426 4.0859966 0.88837147
-0.26403189 4.0805883 0.88559031
-0.26034737 4.0751963 0.88267088
-0.25653529 4.0698113 0.87964964
-0.25260901 4.0644302 0.87653804
-0.25631666 4.0577316 0.87947655
-0.26008511 4.0510387 0.8824625
-0.25594068 4.0456767 0.87917781
-0.24019337 4.0421996 0.86669946
-0.3098948 4.3567443 0.92950654
-0.31059694 4.3506112 0.93006086
-0.31114531 4.344523 0.93049455
-0.3115747 4.33847 0.93083262
-0.31189251 4.332449 0.93108368
-0.31210136 4.3264589 0.93124843
-0.31221795 4.3204942 0.93134141
-0.31223941 4.3145552 0.93135786
-0.3121655 4.3086414 0.93129969
-0.31204724 4.3027391 0.93120575
-0.31186962 4.2968512 0.9310658
-0.31164932 4.2909732 0.93089128
-0.31140089 4.2851024 0.93069601
-0.31111479 4.2792382 0.93047047
-0.310812 4.2733784 0.93023062
-0.31051016 4.2675171 0.92999291
-0.31017542 4.2616625 0.92972779
-0.30981636 4.2558122 0.92944479
-0.30945253 4.2499614 0.92915797
-0.30902624 4.2441244 0.92882085
-0.30857944 4.2382903 0.92846847
-0.30809665 4.2324634 0.92808676
-0.30753016 4.2266531 0.92763877
-0.3069272 4.220849 0.92716289
-0.30627966 4.2150536 0.92665076
-0.30551791 4.2092805 0.92604971
-0.30470133 4.2035165 0.92540479
-0.30382276 4.1977625 0.92471075
-0.30280352 4.1920362 0.92390633
-0.30171299 4.1863213 0.92304492
-0.30054808 4.1806173 0.92212486
-0.29922891 4.1749425 0.92108321
-0.29782438 4.1692805 0.91997385
-0.29633594 4.1636295 0.91879797
-0.29468966 4.1580043 0.91749907
-0.29294682 4.1523933 0.91612267
-0.29111671 4.1467924 0.91467714
-0.28912902 4.1412153 0.91310716
-0.28703737 4.1356506 0.91145492
-0.28485513 4.1300955 0.90973091
-0.28251362 4.1245613 0.90788245
-0.28006148 4.1190395 0.90594625
-0.27751684 4.1135254 0.90393639
-0.27480531 4.1080313 0.90179443
-0.27197671 4.1025486 0.89956045
-0.26904774 4.0970716 0.89724779
-0.26593852 4.0916157 0.89479256
-0.26270866 4.0861683 0.89224172
-0.25937247 4.0807266 0.88960695
-0.25586677 4.0753016 0.88683748
-0.25222945 4.0698833 0.88396597
-0.25138855 4.0639687 0.88330197
-0.25692129 4.0569668 0.88767147
-0.25610471 4.0510545 0.88702536
-0.25153875 4.0457606 0.88341999
-0.22865486 4.0434484 0.86534762
-0.3014698 4.3461332 0.93042898
-0.30175328 4.3401079 0.93065119
-0.301934 4.3341122 0.93079376
-0.30199361 4.3281493 0.93084121
-0.30197239 4.3222084 0.93082452
-0.30188775 4.3162832 0.93075752
-0.30174136 4.3103743 0.93064237
-0.30154538 4.3044782 0.93048859
-0.30131674 4.2985892 0.93030834
-0.30107141 4.2927041 0.93011546
-0.30083394 4.2868152 0.9299283
-0.30058241 4.2809291 0.92973018
-0.30034065 4.2750401 0.9295404
-0.30011678 4.269145 0.9293642
-0.29988885 4.2632504 0.92918468
-0.29967356 4.2573514 0.92901468
-0.29943061 4.2514582 0.92882371
-0.2991662 4.2455692 0.92861605
-0.29889631 4.2396803 0.92840266
-0.29857445 4.2338033 0.9281497
-0.29819345 4.2279372 0.92784953
-0.29777026 4.2220802 0.9275167
-0.29727936 4.2162371 0.92713094
-0.29670072 4.2104111 0.92667556
-0.29607129 4.2045941 0.92617965
-0.29535079 4.1987953 0.92561293
-0.29451227 4.1930194 0.92495251
-0.29359961 4.1872563 0.92423391
-0.29259825 4.1815085 0.9234457
-0.29144835 4.1757874 0.92254114
-0.2902143 4.1700802 0.92156959
-0.28889179 4.1643853 0.92052889
-0.2874074 4.1587195 0.91936064
-0.28582978 4.1530662 0.91811872
-0.28415942 4.1474252 0.91680455
-0.28233528 4.1418085 0.91536808
-0.28040433 4.1362057 0.91384816
-0.27838111 4.1306124 0.91225624
-0.27620554 4.1250405 0.9105444
-0.27391648 4.1194816 0.90874243
-0.27153492 4.1139307 0.90686822
-0.26899719 4.1083984 0.90487051
-0.26633835 4.1028786 0.90277791
-0.26358199 4.0973654 0.90060854
-0.26065922 4.0918727 0.89830756
-0.2576046 4.0863895 0.89590383
-0.25444651 4.0809126 0.89341831
-0.25111961 4.0754523 0.89079905
-0.24765801 4.0700016 0.88807464
-0.25200081 4.0631933 0.89149261
-0.25561333 4.0565286 0.89433622
-0.25189877 4.0511074 0.89141226
-0.23929501 4.0471435 0.88149309
-0.29148102 4.3418641 0.93014884
-0.29145074 4.3359122 0.93012452
-0.29134536 4.3299794 0.93004298
-0.29115367 4.324069 0.92989206
-0.2909112 4.3181715 0.92970204
-0.29063058 4.3122821 0.92948222
-0.2903204 4.3064003 0.9292388
-0.2900064 4.300518 0.92899251
-0.28971696 4.2946281 0.92876482
-0.28947926 4.2887244 0.92857862
-0.28927088 4.2828112 0.92841554
-0.28911471 4.2768855 0.92829251
-0.28899193 4.2709494 0.92819595
-0.2889142 4.2650023 0.92813468
-0.28887701 4.2590451 0.92810607
-0.28881598 4.2530932 0.92805862
-0.28876114 4.2471404 0.92801523
-0.28869176 4.2411904 0.92796087
-0.28855991 4.2352543 0.92785692
-0.28839755 4.2293253 0.92772985
-0.28819251 4.2234054 0.92756963
-0.2878778 4.2175093 0.92732239
-0.28750372 4.2116251 0.92702937
-0.2870791 4.2057514 0.92669535
-0.28652668 4.1999044 0.92626309
-0.2858839 4.1940742 0.92575765
-0.28516531 4.1882582 0.92519546
-0.28433156 4.1824646 0.92454004
-0.28336692 4.1766944 0.92378402
-0.28231335 4.1709394 0.92295766
-0.28116131 4.1652002 0.92205334
-0.27984738 4.1594906 0.92102265
-0.27844024 4.1537943 0.91991925
-0.27693772 4.1481113 0.91874051
-0.27527547 4.1424546 0.91743708
-0.27350807 4.1368113 0.91605091
-0.27164865 4.1311793 0.91459227
-0.26963711 4.1255684 0.91301417
-0.26751089 4.1199713 0.9113462
-0.26529193 4.1143837 0.9096055
-0.26292324 4.1088142 0.90774727
-0.26043034 4.1032586 0.90579271
-0.25784349 4.0977097 0.90376306
-0.25510073 4.0921783 0.90161157
-0.25222468 4.0866594 0.89935637
-0.24924636 4.0811467 0.89701891
-0.24610281 4.0756507 0.89455342
-0.24707794 4.0694246 0.89531851
-0.25261235 4.0624204 0.8996594
-0.2510035 4.0566506 0.8983984
-0.2464416 4.0513697 0.89481974
-0.22668624 4.0485835 0.87932253
-0.27991533 4.3320131 0.92866921
-0.27946639 4.3261561 0.92831755
-0.27898264 4.3203053 0.92794013
-0.27846837 4.3144612 0.92753744
-0.2779572 4.3086133 0.92713857
-0.27749991 4.3027501 0.92678094
-0.27710819 4.2968683 0.92647457
-0.27683926 4.2909532 0.92626429
-0.27676153 4.2849894 0.92620325
-0.27671289 4.2790184 0.9261651
-0.27682233 4.2730074 0.92625022
-0.27697277 4.2669864 0.92636847
-0.27717161 4.2609553 0.92652369
-0.27738881 4.2549205 0.92669415
-0.27760506 4.2488861 0.92686272
-0.27777576 4.2428641 0.92699671
-0.27792811 4.2368474 0.9271152
-0.27804852 4.2308373 0.92720985
-0.27805471 4.2248554 0.92721367
-0.27799749 4.2188873 0.9271698
-0.27787066 4.2129354 0.92707014
-0.27764225 4.2070055 0.92689133
-0.27730322 4.2010984 0.92662644
-0.27688646 4.1952076 0.92630148
-0.27638125 4.1893344 0.92590642
-0.27572155 4.1834912 0.92539072
-0.27496099 4.1776686 0.92479563
-0.27410388 4.1718626 0.92412591
-0.27312088 4.1660786 0.92335749
-0.27199364 4.1603203 0.92247653
-0.27076674 4.1545782 0.92151618
-0.26943946 4.1488514 0.92047977
-0.26794171 4.1431532 0.9193089
-0.26634455 4.1374683 0.9180603
-0.26465058 4.1317964 0.91673541
-0.26280379 4.1261463 0.91529179
-0.26084185 4.1205115 0.91375756
-0.25878549 4.1148863 0.91215062
-0.25658584 4.1092796 0.91043043
-0.25425816 4.1036863 0.90861177
-0.25183654 4.0981016 0.90671825
-0.24926972 4.0925336 0.90471196
-0.24656653 4.0869784 0.9025991
-0.24376345 4.0814295 0.90040755
-0.24215126 4.0756607 0.89914727
-0.2476964 4.0686417 0.90348172
-0.24949384 4.0622883 0.90488672
-0.24616575 4.0568128 0.90228486
-0.23297381 4.0529728 0.89197278
-0.26635432 4.3286152 0.92567492
-0.26538873 4.3228722 0.92492342
-0.26448202 4.3171091 0.92421603
-0.26357651 4.3113432 0.92351103
-0.26284051 4.3055282 0.92293787
-0.26236534 4.2996454 0.92256784
-0.26212144 4.2937012 0.92237759
-0.26217079 4.2876821 0.92241669
-0.26249027 4.2815971 0.92266488
-0.26290846 4.2754893 0.92299104
-0.26349497 4.2693415 0.92344785
-0.26411867 4.2631865 0.92393351
-0.26473093 4.2570372 0.92441082
-0.26533961 4.2508912 0.92488503
-0.26592851 4.2447534 0.92534375
-0.26644564 4.2386341 0.92574644
-0.26688051 4.2325363 0.92608523
-0.26723623 4.2264585 0.92636275
-0.26750755 4.2204003 0.92657351
-0.2676475 4.2143745 0.92668319
-0.26768351 4.2083712 0.92671061
-0.26762247 4.2023902 0.92666364
-0.26746178 4.1964312 0.92653751
-0.26715708 4.1905022 0.92630029
-0.26672959 4.1845984 0.92596769
-0.26619959 4.1787152 0.92555428
-0.26555824 4.1728525 0.92505527
-0.2647531 4.1670222 0.92442822
-0.26382899 4.1612124 0.92370749
-0.26279402 4.1554213 0.92290163
-0.26163983 4.1496515 0.92200232
-0.26032329 4.1439075 0.92097616
-0.25890303 4.1381793 0.91987038
-0.25738096 4.1324654 0.91868472
-0.25569987 4.1267767 0.91737437
-0.25390601 4.1211014 0.91597652
-0.25201535 4.1154375 0.91450334
-0.24998164 4.1097927 0.91291952
-0.24782062 4.1041627 0.91123557
-0.24556422 4.0985413 0.90947819
-0.24316955 4.0929365 0.90761209
-0.24063587 4.0873456 0.90563774
-0.23800635 4.0817614 0.90358925
-0.24277782 4.0748677 0.90730715
-0.24724984 4.0680456 0.91079068
-0.24425936 4.0625205 0.90846133
-0.23681569 4.0577364 0.90266204
-0.21914291 4.0546317 0.88889265
-0.24534655 4.3210931 0.91695166
-0.24239802 4.3158231 0.91466141
-0.24038219 4.3103013 0.91309667
-0.23912644 4.3045774 0.91212106
-0.23967481 4.2983932 0.91254735
-0.24083304 4.292058 0.91344619
-0.24286175 4.2855124 0.9150219
-0.24473143 4.2790132 0.91647315
-0.24641204 4.2725682 0.91777897
-0.2481246 4.2661233 0.91910768
-0.24970341 4.2597175 0.92033434
-0.25113797 4.2533522 0.92144847
-0.25240064 4.2470331 0.92242813
-0.25357819 4.2407403 0.92334294
-0.25457191 4.2344933 0.92411423
-0.25540566 4.2282882 0.92476177
-0.25610471 4.2221174 0.92530394
-0.25666904 4.2159796 0.92574215
-0.25709248 4.2098751 0.92607141
-0.25737047 4.2038054 0.92628765
-0.2574749 4.1977744 0.92636871
-0.2574544 4.1917715 0.92635274
-0.25730658 4.1857953 0.92623782
-0.25703692 4.1798444 0.92602849
-0.25660753 4.1739264 0.92569447
-0.25602841 4.1680374 0.92524529
-0.25532508 4.1621714 0.92469907
-0.25450182 4.1563282 0.92405939
-0.2535255 4.1505113 0.92330146
-0.25240421 4.1447206 0.92243147
-0.25117207 4.1389456 0.92147422
-0.24983191 4.1331873 0.92043328
-0.24831653 4.1274576 0.91925693
-0.24669743 4.1217413 0.91800046
-0.244977 4.1160383 0.91666389
-0.24310827 4.1103554 0.91521311
-0.24111462 4.1046877 0.91366553
-0.23902488 4.0990295 0.91204262
-0.23679972 4.0933867 0.91031504
-0.23443508 4.0877604 0.9084785
-0.2378552 4.0810976 0.91113424
-0.243402 4.0740767 0.91544151
-0.24162173 4.0683484 0.91405869
-0.23862958 4.0628195 0.91173601
-0.22202659 4.0595775 0.89884448
-0.23046041 4.2573442 0.91305399
-0.23486543 4.2502513 0.9164629
-0.23781347 4.2435164 0.9187448
-0.24013114 4.2369394 0.92053795
-0.24194217 4.2304883 0.92193913
-0.24342084 4.2241201 0.92308331
-0.24461746 4.2178226 0.92400885
-0.24555707 4.2115865 0.92473602
-0.24628258 4.2054014 0.92529798
-0.24682713 4.1992593 0.9257195
-0.24719024 4.1931581 0.9260006
-0.24738574 4.1870956 0.92615175
-0.24737358 4.1810775 0.9261415
-0.24721241 4.1750903 0.926018
-0.2469039 4.1691332 0.92577887
-0.24645233 4.1632042 0.92543006
-0.245857 4.1573033 0.92496824
