# .PCD v0.7 - Point Cloud Data file format
VERSION 0.7
FIELDS x y z
SIZE 4 4 4
TYPE F F F
COUNT 1 1 1
WIDTH 1467
HEIGHT 1
VIEWPOINT 0 0 0 1 0 0 0
POINTS 1467
DATA ascii
0.0012652178 3.2866533 1.004166
0.0052901534 3.281117 1.0037318
0.0093165208 3.2755795 1.0032989
0.013345033 3.2700398 1.002865
0.019102538 3.2654736 1.001233
0.025188968 3.261081 0.99937785
0.03128637 3.25668 0.99751836
0.037393782 3.2522733 0.99565649
0.051894955 3.252511 0.98800564
-0.16881357 3.9014423 0.91577125
-0.16800252 3.8930595 0.91786867
-0.16719456 3.8846912 0.91996324
-0.16638732 3.8763404 0.9220528
-0.16558033 3.8680041 0.92413855
-0.18978924 3.8395958 0.94528389
-0.18899132 3.8313625 0.94734365
-0.18819748 3.8231435 0.94940054
-0.1874041 3.8149405 0.95145321
-0.18515666 3.8079026 0.95239872
-0.17138305 3.8099551 0.94460905
-0.15998085 3.8100829 0.93863297
-0.15918675 3.8018696 0.94068867
-0.15831904 3.7937303 0.94268405
-0.15718247 3.7858155 0.944471
-0.15604733 3.7779133 0.94625479
-0.15491459 3.7700241 0.94803625
-0.15378445 3.7621469 0.94981605
-0.1526553 3.754282 0.9515925
-0.15152757 3.7464299 0.95336485
-0.15040199 3.7385919 0.95513511
-0.1492776 3.7307656 0.95690155
-0.14815441 3.7229528 0.95866609
-0.14703456 3.7151506 0.96042824
-0.1459159 3.7073617 0.96218681
-0.14479962 3.6995854 0.96394342
-0.14368431 3.6918206 0.9656958
-0.14253087 3.684099 0.96741694
-0.14109881 3.676595 0.96892607
-0.13967034 3.6691005 0.97043538
-0.13824257 3.6616173 0.97194189
-0.13682005 3.6541424 0.97344691
-0.13539636 3.6466784 0.97494984
-0.13397384 3.6392267 0.97644895
-0.13255443 3.6317835 0.97794729
-0.13113813 3.6243498 0.97944379
-0.12972277 3.6169276 0.98093837
-0.12686285 3.6105406 0.98136926
-0.12313107 3.6047728 0.98115927
-0.11939786 3.5990047 0.98094857
-0.11566369 3.593235 0.98073953
-0.1117684 3.5875769 0.98041171
-0.10772201 3.5820208 0.97997421
-0.10367442 3.5764618 0.97953743
-0.099624686 3.5709012 0.97910058
-0.095573515 3.5653386 0.97866285
-0.093608327 3.558346 0.97974223
-0.091880053 3.5512013 0.98098969
-0.090153687 3.5440636 0.98223621
-0.088429466 3.5369341 0.98348135
-0.086706683 3.529814 0.98472381
-0.084986754 3.5227001 0.98596704
-0.08302182 3.515759 0.98703015
-0.080946289 3.5089006 0.988011
-0.078874335 3.5020471 0.98899233
-0.076803334 3.4952009 0.98997128
-0.074733295 3.4883597 0.99095023
-0.072665639 3.4815254 0.9919275
-0.070600368 3.4746971 0.99290454
-0.068536766 3.4678755 0.99388111
-0.066474363 3.4610603 0.99485582
-0.064414814 3.4542501 0.99583048
-0.062355269 3.4474466 0.99680251
-0.060054522 3.440805 0.99760163
-0.057564057 3.434289 0.99826384
-0.055075258 3.4277778 0.99892485
-0.052588128 3.4212701 0.99958563
-0.05010267 3.4147675 1.0002457
-0.047618166 3.4082677 1.0009054
-0.045135811 3.4017723 1.0015657
-0.042653929 3.3952813 1.0022248
-0.040175151 3.3887932 1.0028839
-0.03769685 3.3823092 1.0035425
-0.034831472 3.3760676 1.0039265
-0.03175921 3.3699534 1.0041649
-0.028688142 3.3638408 1.0044029
-0.025616599 3.3577311 1.0046403
-0.022547677 3.3516207 1.0048786
-0.019477563 3.3455133 1.0051161
-0.01641007 3.3394055 1.0053543
-0.013341625 3.3333008 1.005592
-0.0098827658 3.3274276 1.0055556
-0.0058525838 3.3218908 1.0051219
-0.0018214487 3.3163517 1.0046873
0.0022111177 3.3108087 1.0042531
0.006246069 3.3052659 1.003819
0.010283404 3.2997196 1.0033839
0.014739519 3.2944119 1.0026582
0.020833099 3.2900362 1.0008012
0.026937885 3.2856534 0.99893904
0.033052213 3.2812629 0.9970755
0.041943077 3.2784274 0.99329847
0.057032965 3.2790525 0.98525262
-0.16675028 3.9021788 0.92265242
-0.16594256 3.8938 0.9247427
-0.16513534 3.8854373 0.92682916
-0.16433024 3.8770907 0.92891133
-0.16352612 3.8687596 0.93098944
-0.18775338 3.8403502 0.95206803
-0.18695407 3.8321259 0.95411664
-0.18581726 3.8241856 0.95590448
-0.18468046 3.8162594 0.95768833
-0.18354771 3.808346 0.95947075
-0.17079486 3.809597 0.95247889
-0.15745571 3.8112531 0.94506294
-0.15631936 3.8033125 0.94685179
-0.15518303 3.7953858 0.94863611
-0.1540491 3.7874715 0.95041776
-0.15291706 3.7795703 0.95219731
-0.15178716 3.7716813 0.95397305
-0.15065944 3.7638054 0.95574737
-0.1495336 3.7559407 0.95751804
-0.14840874 3.7480907 0.95928496
-0.14728436 3.740253 0.96104997
-0.14616401 3.7324271 0.9628126
-0.14504512 3.7246137 0.96457237
-0.14392647 3.7168131 0.96632832
-0.14269912 3.7091086 0.96799862
-0.14126539 3.7015698 0.96951228
-0.13983285 3.694042 0.97102326
-0.13840246 3.6865256 0.97253263
-0.13697374 3.6790185 0.97404051
-0.13554694 3.6715229 0.97554463
-0.13412465 3.6640351 0.97704899
-0.13270262 3.6565588 0.9785502
-0.13128154 3.6490936 0.98004836
-0.12986261 3.6416385 0.98154557
-0.12844653 3.6341922 0.98304105
-0.12703165 3.6267569 0.98453373
-0.12561774 3.6193333 0.98602402
-0.12350287 3.6124179 0.98699743
-0.11973248 3.6066782 0.98676074
-0.11569037 3.6011279 0.98632562
-0.11164612 3.5955765 0.98589027
-0.10760068 3.5900221 0.98545444
-0.10355332 3.5844662 0.98501903
-0.099504307 3.578907 0.98458225
-0.095453374 3.5733466 0.98414618
-0.091400795 3.5677838 0.98370963
-0.088442661 3.5614698 0.98406559
-0.086715102 3.5543201 0.98531067
-0.084991597 3.5471773 0.98655581
-0.082924396 3.5402768 0.98754954
-0.080843613 3.5333912 0.98853302
-0.07876689 3.5265129 0.98951602
-0.076690175 3.5196397 0.99049664
-0.074615829 3.5127738 0.99147606
-0.072544828 3.5059128 0.99245739
-0.070475027 3.4990587 0.99343514
-0.068405218 3.4922118 0.9944129
-0.066339709 3.4853692 0.99539018
-0.064274199 3.4785337 0.99636602
-0.062211785 3.4717047 0.99734139
-0.059773032 3.4651253 0.99804652
-0.057277314 3.4585879 0.99870974
-0.054783266 3.4520543 0.99937284
-0.05229041 3.4455247 1.0000347
-0.049799226 3.4389999 1.0006959
-0.047309712 3.4324787 1.0013572
-0.04482187 3.425961 1.0020189
-0.042334024 3.4194481 1.002679
-0.039850708 3.4129384 1.0033393
-0.037366681 3.4064324 1.0039995
-0.034299418 3.4002936 1.0042471
-0.031220479 3.3941638 1.0044848
-0.028141778 3.3880348 1.0047239
-0.0250657 3.3819063 1.004963
-0.021988193 3.3757803 1.0052005
-0.018911637 3.3696561 1.0054394
-0.01583699 3.3635328 1.0056773
-0.012762103 3.3574111 1.0059162
-0.0089614475 3.3517246 1.0056468
-0.0049217283 3.3461788 1.0052115
-0.00088057783 3.3406317 1.0047768
0.0031631952 3.3350811 1.0043405
0.0072081606 3.3295286 1.0039052
0.011253604 3.3239744 1.0034693
0.016461715 3.3190932 1.0022292
0.022573411 3.314728 1.0003664
0.028694645 3.3103547 0.99850005
0.034827564 3.3059738 0.99662983
0.047043886 3.305064 0.99056405
-0.16388358 3.8945401 0.93160844
-0.16307896 3.8861825 0.93368536
-0.16227698 3.87784 0.93576086
-0.16147548 3.8695135 0.93783087
-0.18496275 3.8417125 0.95826888
-0.18382691 3.8337603 0.96005458
-0.18269151 3.8258226 0.96183652
-0.18155971 3.8178959 0.96361607
-0.18042888 3.8099835 0.96539301
-0.17030559 3.8091633 0.96040422
-0.15639347 3.8112774 0.95258212
-0.15318266 3.8049662 0.95280528
-0.1520499 3.7970397 0.95458573
-0.15091787 3.7891266 0.95636195
-0.14978917 3.7812259 0.95813531
-0.14866239 3.7733376 0.95990652
-0.14753656 3.7654626 0.96167529
-0.14641359 3.7575986 0.96344173
-0.14529184 3.7497489 0.96520412
-0.14417055 3.7419119 0.9669627
-0.14286859 3.7342253 0.96858341
-0.14143248 3.7266531 0.97009987
-0.13999635 3.7190926 0.97161448
-0.13856165 3.7115414 0.97312599
-0.13712983 3.7040019 0.97463602
-0.1357016 3.696471 0.97614515
-0.13427454 3.6889503 0.97765064
-0.13284962 3.6814411 0.97915572
-0.1314252 3.6739433 0.98065627
-0.13000341 3.6664541 0.98215628
-0.12858446 3.6589758 0.98365396
-0.12716554 3.6515083 0.98514974
-0.12575041 3.6440494 0.98664308
-0.1243365 3.6366022 0.98813528
-0.12288849 3.6291907 0.98959786
-0.12115519 3.6219935 0.99084944
-0.11942263 3.614805 0.99209952
-0.11556881 3.6091239 0.99180251
-0.11152504 3.6035745 0.99136811
-0.10747863 3.5980232 0.99093246
-0.10343176 3.592469 0.99049807
-0.09938322 3.5869119 0.99006367
-0.09533301 3.5813534 0.98962855
-0.091280892 3.5757926 0.9891929
-0.087227345 3.5702291 0.98875731
-0.082824856 3.5649021 0.98807102
-0.080739781 3.5579901 0.98905665
-0.078657568 3.5510859 0.99003989
-0.076577738 3.5441859 0.99102336
-0.0744991 3.5372934 0.99200565
-0.072422132 3.5304079 0.99298769
-0.070348747 3.5235274 0.99396878
-0.068274885 3.516654 0.99494749
-0.066204362 3.5097852 0.99592716
-0.064135507 3.502924 0.99690491
-0.061993245 3.4961178 0.9978283
-0.059491083 3.4895535 0.99849433
-0.056988448 3.4829946 0.99915779
-0.054489862 3.4764395 0.99982262
-0.051991522 3.4698873 1.0004858
-0.049494609 3.4633403 1.0011485
-0.047000322 3.4567964 1.0018111
-0.044506516 3.4502571 1.0024743
-0.042014137 3.4437225 1.0031351
-0.03952438 3.437191 1.0037974
-0.036851812 3.4307787 1.0043291
-0.033765003 3.4246306 1.0045677
-0.030679146 3.418484 1.0048076
-0.02759424 3.4123387 1.0050462
-0.024509337 3.406194 1.0052849
-0.021426104 3.4000516 1.0055248
-0.018343108 3.3939099 1.0057634
-0.015260829 3.3877695 1.0060021
-0.012083448 3.3816893 1.0061736
-0.0080349064 3.3761382 1.005738
-0.0039851721 3.370584 1.0053012
6.5993634e-05 3.3650279 1.0048659
0.0041190661 3.3594697 1.0044286
0.00817357 3.3539093 1.0039926
0.012229504 3.348346 1.0035553
0.018192945 3.3439059 1.0017976
0.024322757 3.3395512 0.99992883
0.03046187 3.3351865 0.99805743
0.037055757 3.3310747 0.99587619
0.052181847 3.3318977 0.98781103
-0.16182673 3.8952796 0.93846315
-0.16102569 3.8869264 0.94053435
-0.16022538 3.8785896 0.94260055
-0.15915266 3.8704879 0.94445735
-0.18183415 3.8433466 0.96420872
-0.18070067 3.8353953 0.96598995
-0.17956817 3.8274572 0.96776593
-0.17843945 3.8195319 0.96954072
-0.17731029 3.8116193 0.97131258
-0.16981706 3.8087316 0.96831053
-0.15591994 3.8108404 0.96052635
-0.15004736 3.8066189 0.95875633
-0.14891677 3.7986934 0.96053112
-0.14778949 3.7907815 0.9623028
-0.14666343 3.7828801 0.96407187
-0.14553809 3.7749932 0.96583706
-0.14441606 3.7671185 0.96760064
-0.14303832 3.7594523 0.96917057
-0.14159814 3.7518468 0.97069019
-0.14015938 3.7442508 0.97220737
-0.13872232 3.7366664 0.97372198
-0.13728809 3.7290924 0.97523558
-0.1358553 3.7215285 0.97674614
-0.13442419 3.7139754 0.9782545
-0.13299546 3.7064328 0.97976124
-0.13157009 3.6988995 0.98126674
-0.13014613 3.6913769 0.98277038
-0.12872311 3.6838653 0.98427117
-0.12730086 3.6763647 0.98576784
-0.12588286 3.6688733 0.98726505
-0.12446559 3.6613932 0.9887594
-0.12293226 3.6540079 0.990165
-0.12119253 3.6467819 0.99141747
-0.11945994 3.6395624 0.99267113
-0.11772475 3.6323528 0.99392152
-0.11599359 3.6251504 0.99517137
-0.11426315 3.6179574 0.99641794
-0.11140252 3.611572 0.99684328
-0.10735754 3.6060214 0.99641055
-0.10331019 3.6004703 0.99597687
-0.099263087 3.5949149 0.99554366
-0.095213346 3.5893586 0.99510944
-0.091161229 3.5838001 0.99467552
-0.086734436 3.5784965 0.99397206
-0.082262352 3.5732188 0.99323738
-0.077787168 3.5679369 0.99250269
-0.074382149 3.5619214 0.99253768
-0.072300412 3.5550091 0.99352092
-0.070221059 3.5481029 0.99450344
-0.068143852 3.5412023 0.99548477
-0.066068552 3.534308 0.99646658
-0.063995644 3.52742 0.99744576
-0.061716083 3.5206771 0.99827659
-0.059207484 3.514092 0.99894285
-0.056700315 3.5075104 0.99960816
-0.05419505 3.5009325 1.0002739
-0.051691696 3.4943593 1.0009388
-0.049189776 3.4877896 1.0016031
-0.046689279 3.4812241 1.002267
-0.044189747 3.4746623 1.0029312
-0.041692834 3.4681048 1.0035944
-0.039197113 3.4615514 1.0042576
-0.036322903 3.4552448 1.0046517
-0.033229411 3.4490793 1.0048915
-0.030136876 3.4429152 1.0051311
-0.027043624 3.4367533 1.005371
-0.023952041 3.4305925 1.0056101
-0.020860938 3.424433 1.005849
-0.017770786 3.4182746 1.0060883
-0.014681588 3.4121182 1.0063281
-0.011161697 3.4062283 1.0062665
-0.007104571 3.4006681 1.0058295
-0.003045537 3.3951056 1.0053922
0.0010165963 3.3895414 1.0049547
0.0050794459 3.3839746 1.0045182
0.0091434876 3.3784056 1.0040799
0.013799349 3.3731875 1.0032338
0.019933928 3.3688495 1.0013636
0.026080664 3.3645034 0.99948955
0.03223718 3.3601506 0.99761242
0.042156514 3.3580039 0.99314177
0.057360057 3.3589315 0.98503536
-0.15943407 3.8962948 0.94505459
-0.1582865 3.8882277 0.94685555
-0.1571399 3.8801742 0.94865298
-0.15599734 3.8721325 0.95044845
-0.17870554 3.8449793 0.97014576
-0.17757493 3.8370299 0.97192031
-0.17644671 3.8290915 0.97369295
-0.17531945 3.8211679 0.97546148
-0.1741948 3.8132551 0.97722888
-0.16932946 3.8083005 0.97619969
-0.15544687 3.8104053 0.96845222
-0.14691377 3.8082707 0.96470505
-0.14578697 3.8003466 0.96647412
-0.14465733 3.792438 0.96823746
-0.14321165 3.7847872 0.96976203
-0.14176716 3.7771473 0.97128403
-0.14032483 3.7695186 0.97280288
-0.1388844 3.7619004 0.97432154
-0.1374466 3.7542922 0.97583729
-0.13601071 3.7466946 0.97735071
-0.13457577 3.7391078 0.97886145
-0.13314369 3.7315314 0.98037106
-0.13171473 3.7239645 0.9818787
-0.13028792 3.7164087 0.98338521
-0.1288618 3.7088633 0.98488879
-0.12743691 3.7013295 0.98638982
-0.12601438 3.693805 0.98788822
-0.12459544 3.68629 0.9893868
-0.1229751 3.6789341 0.99073374
-0.12123322 3.6716774 0.99198979
-0.11949467 3.6644289 0.99324447
-0.11775564 3.6571891 0.99449694
-0.11602067 3.6499565 0.99574918
-0.11428737 3.6427329 0.99700004
-0.11255741 3.6355166 0.99824893
-0.11082602 3.6283114 0.99949503
-0.10909988 3.6211123 1.000742
-0.10723645 3.6140194 1.0018867
-0.10318958 3.6084695 1.0014545
-0.099141993 3.6029165 1.0010227
-0.095092021 3.5973623 1.0005885
-0.090646885 3.5920799 0.99987316
-0.086177662 3.5868073 0.9991411
-0.081705339 3.5815318 0.99840826
-0.077229917 3.5762527 0.99767596
-0.07275068 3.5709698 0.99694246
-0.068270251 3.5656831 0.99620992
-0.065932289 3.558938 0.99700713
-0.06385389 3.5520246 0.99798942
-0.061436087 3.5453465 0.99872625
-0.058922 3.538739 0.99939394
-0.056410052 3.5321348 1.0000602
-0.053899541 3.5255344 1.0007277
-0.051390223 3.5189395 1.0013933
-0.048882574 3.5123477 1.0020591
-0.046376836 3.5057597 1.0027258
-0.043871574 3.499176 1.0033897
-0.041368693 3.4925966 1.0040548
-0.038867962 3.4860208 1.0047189
-0.035789959 3.4798219 1.0049759
-0.032689311 3.4736397 1.005216
-0.029590573 3.4674592 1.0054573
-0.026490882 3.4612799 1.0056967
-0.023392143 3.4551027 1.0059361
-0.020293884 3.4489262 1.0061755
-0.017197529 3.4427507 1.0064161
-0.014100699 3.4365771 1.0066557
-0.010237584 3.4308841 1.0063596
-0.0061694891 3.4253163 1.0059214
-0.0020992486 3.4197452 1.0054836
0.0019717077 3.4141722 1.0050447
0.0060443338 3.408597 1.0046072
0.010118152 3.4030199 1.0041674
0.015529342 3.3982525 1.0028038
0.021684183 3.3939247 1.000927
0.027847605 3.3895886 0.99904788
0.034022477 3.3852458 0.99716645
0.047297038 3.3851345 0.99038637
-0.1562704 3.8979373 0.95105857
-0.15512617 3.8898711 0.95285386
-0.15398385 3.8818176 0.95464647
-0.15284154 3.8737783 0.95643556
-0.17557932 3.8466117 0.97607923
-0.17445157 3.8386631 0.97784877
-0.17332645 3.8307254 0.97961593
-0.17220181 3.8228023 0.98137945
-0.17108002 3.8148916 0.9831416
-0.16884379 3.8078706 0.98406994
-0.15501481 3.8099401 0.9763881
-0.14338355 3.8102338 0.97035491
-0.14193524 3.8025601 0.9718793
-0.14049099 3.7948956 0.97340244
-0.13904746 3.7872436 0.97492254
-0.13760585 3.7796006 0.97644138
-0.13616636 3.7719691 0.97795838
-0.13472952 3.7643478 0.97947317
-0.13329363 3.7567389 0.98098445
-0.13186012 3.7491386 0.98249543
-0.130429 3.7415497 0.98400289
-0.12899931 3.7339702 0.9855091
-0.12757272 3.726402 0.98701274
-0.1261483 3.7188425 0.98851585
-0.12472505 3.7112954 0.99001545
-0.12301795 3.70397 0.99130493
-0.12127368 3.6966825 0.99256432
-0.1195294 3.6894038 0.99382085
-0.11778869 3.6821325 0.99507642
-0.11604944 3.6748703 0.9963311
-0.11431088 3.6676173 0.99758261
-0.11257711 3.6603708 0.99883533
-0.11084332 3.6531346 1.0000845
-0.10911169 3.6459064 1.001332
-0.10738245 3.6386862 1.0025792
-0.10565489 3.6314743 1.0038244
-0.10392968 3.6242709 1.005069
-0.10220784 3.6170743 1.0063117
-0.09902066 3.6109178 1.0065
-0.094556689 3.605655 1.0057706
-0.090090573 3.600389 1.0050406
-0.085620165 3.5951195 1.0043107
-0.081147604 3.5898471 1.0035806
-0.076672181 3.5845697 1.0028487
-0.072192952 3.5792897 1.0021179
-0.067710616 3.5740061 1.0013851
-0.063026875 3.5688541 1.0005107
-0.058636054 3.5634971 0.99984658
-0.056117907 3.55687 1.0005152
-0.053601671 3.5502489 1.0011834
-0.0510871 3.5436301 1.0018513
-0.04857444 3.5370159 1.0025188
-0.046062976 3.5304058 1.0031855
-0.043552462 3.5237999 1.0038511
-0.041043382 3.5171986 1.0045171
-0.038363408 3.5107133 1.0050608
-0.035256557 3.5045128 1.0053016
-0.032148041 3.4983146 1.0055417
-0.029041193 3.4921165 1.0057826
-0.025934823 3.4859207 1.0060229
-0.022829883 3.4797249 1.0062644
-0.019723751 3.473532 1.0065036
-0.016620241 3.46734 1.0067446
-0.013383972 3.4612341 1.0068921
-0.0093080094 3.4556592 1.0064529
-0.0052299001 3.4500825 1.0060142
-0.0011498822 3.4445033 1.0055753
0.0029308503 3.4389222 1.0051354
0.0070137288 3.4333389 1.0046959
0.011110672 3.4277601 1.004247
0.017270992 3.4234507 1.0023699
0.023442995 3.4191332 1.0004889
0.02962501 3.4148076 0.99860412
0.037233073 3.4113369 0.99573886
0.052475668 3.4124684 0.98761123
-0.1531096 3.8995795 0.95705783
-0.15196846 3.8915136 0.95884901
-0.15082757 3.8834612 0.96063548
-0.14968956 3.8754215 0.96242052
-0.14855321 3.8673956 0.96420169
-0.17133084 3.8402948 0.98377484
-0.17015305 3.8324022 0.98549497
-0.16870904 3.8247342 0.98701483
-0.16726908 3.8170767 0.9885332
-0.16582936 3.8094292 0.990049
-0.15478608 3.8093178 0.98445559
-0.14088202 3.8113933 0.97676206
-0.13776535 3.8050208 0.9770481
-0.13632421 3.7973545 0.9785682
-0.13488306 3.7897 0.98008585
-0.13344429 3.7820554 0.98160094
-0.1320072 3.7744217 0.98311263
-0.13057274 3.7667978 0.98462486
-0.12914042 3.7591853 0.98613369
-0.12770952 3.7515833 0.98763949
-0.12628295 3.7439897 0.98914593
-0.12481346 3.7364414 0.99061763
-0.12306155 3.7291152 0.99187869
-0.12131225 3.721797 0.99313951
-0.11956583 3.7144873 0.99439985
-0.11781988 3.707186 0.99565762
-0.1160775 3.6998928 0.99691415
-0.11433585 3.6926093 0.99816972
-0.11259633 3.6853349 0.99942195
-0.11086017 3.6780667 1.0006752
-0.10912471 3.6708083 1.0019258
-0.10739261 3.6635575 1.0031747
-0.10566025 3.6563158 1.0044224
-0.10393387 3.649081 1.0056697
-0.10220534 3.6418569 1.0069143
-0.10048039 3.63464 1.0081577
-0.098405316 3.6276808 1.0091472
-0.096322626 3.6207337 1.0101285
-0.094001107 3.6139631 1.0109365
-0.089533798 3.6086998 1.0102087
-0.085063152 3.6034331 1.0094802
-0.080590583 3.5981624 1.0087517
-0.076113738 3.5928886 1.0080228
-0.071634263 3.5876107 1.0072919
-0.067129284 3.582345 1.0065459
-0.062075395 3.5774486 1.0054108
-0.057016499 3.572547 1.0042752
-0.051951885 3.5676391 1.0031389
-0.048264179 3.561795 1.0029789
-0.045747705 3.5551624 1.0036471
-0.043231703 3.5485342 1.0043141
-0.040718567 3.5419085 1.0049821
-0.037835039 3.5355351 1.0053874
-0.034718886 3.5293171 1.0056287
-0.031604163 3.5231018 1.0058701
-0.028489925 3.5168872 1.0061114
-0.025377113 3.510674 1.0063517
-0.022264542 3.504462 1.006593
-0.019152684 3.4982517 1.0068343
-0.016041541 3.4920423 1.0070758
-0.012459427 3.4861374 1.0069866
-0.0083734496 3.4805543 1.0065475
-0.0042860406 3.4749691 1.0061066
-0.00019624655 3.4693816 1.005667
0.003895693 3.4637918 1.0052266
0.0079883486 3.4582005 1.0047859
0.012842523 3.4530826 1.0038178
0.019021675 3.4487824 1.0019346
0.025211317 3.4444766 1.0000474
0.03141145 3.4401612 0.9981584
0.042373542 3.4387672 0.99298322
-0.14994925 3.9012203 0.96305585
-0.14880955 3.8931561 0.96483946
-0.1476737 3.8851039 0.96662283
-0.14653829 3.8770649 0.96840137
-0.14518458 3.8692155 0.97001469
-0.16744098 3.8425405 0.98912561
-0.16599888 3.8348587 0.99064475
-0.16455796 3.827189 0.99216098
-0.16312015 3.8195279 0.99367583
-0.16168499 3.8118789 0.99518776
-0.15455876 3.808697 0.99250335
-0.14066996 3.8107674 0.98484695
-0.13359545 3.8074815 0.98221862
-0.13215525 3.7998135 0.98373485
-0.13071744 3.7921572 0.98524803
-0.12928177 3.7845097 0.98675996
-0.12784755 3.7768729 0.98827004
-0.12641641 3.7692471 0.98977768
-0.12485946 3.7617285 0.9911902
-0.12310397 3.7543709 0.9924553
-0.12135228 3.7470217 0.99371928
-0.11960036 3.7396815 0.99498105
-0.11785202 3.7323496 0.99624139
-0.11610512 3.7250266 0.99750054
-0.11435988 3.7177129 0.99875736
-0.11261726 3.7104056 1.0000134
-0.11087631 3.703109 1.0012685
-0.10913871 3.6958184 1.0025222
-0.10740135 3.6885381 1.003773
-0.10566661 3.6812654 1.0050236
-0.10393331 3.6740022 1.0062718
-0.10220357 3.6667454 1.0075197
-0.1003778 3.6595683 1.0086957
-0.098290093 3.6525886 1.0096818
-0.09620405 3.6456134 1.0106663
-0.094120391 3.6386466 1.01165
-0.092038415 3.6316857 1.0126325
-0.08995834 3.6247303 1.0136155
-0.08788088 3.6177819 1.0145959
-0.084506132 3.6117475 1.0146518
-0.080032378 3.6064792 1.0139242
-0.075555526 3.6012075 1.0131967
-0.071076527 3.5959327 1.0124677
-0.066179231 3.5909386 1.0114464
-0.061122485 3.586046 1.0103134
-0.056063354 3.5811479 1.0091807
-0.050997067 3.5762446 1.008045
-0.045926735 3.5713356 1.0069106
-0.040849954 3.5664213 1.0057733
-0.037302632 3.5604718 1.0057153
-0.034179326 3.5542369 1.0059572
-0.031056976 3.5480039 1.0061989
-0.027936533 3.5417721 1.0064406
-0.024816088 3.5355415 1.0066822
-0.021697076 3.5293121 1.0069239
-0.018577347 3.5230846 1.0071652
-0.015458334 3.5168593 1.0074061
-0.011530851 3.5111606 1.0070829
-0.0074348589 3.5055697 1.006642
-0.0033364808 3.4999754 1.0062002
0.00076285069 3.4943795 1.0057594
0.004864567 3.4887817 1.0053178
0.0089672375 3.4831812 1.0048761
0.014584363 3.4785383 1.0033849
0.020781156 3.4742503 1.0014958
0.026988437 3.4699543 0.99960518
0.033206925 3.4656503 0.99770916
0.047552593 3.4664028 0.99020731
-0.14536229 3.8950338 0.97061121
-0.14390323 3.887244 0.97214794
-0.14244559 3.8794649 0.97368109
-0.14099108 3.8716969 0.97521335
-0.16328374 3.8449998 0.99427992
-0.16184402 3.8373153 0.99579543
-0.16040668 3.8296423 0.9973079
-0.15897149 3.8219795 0.99881887
-0.15753892 3.814328 1.0003282
-0.15433075 3.8080776 1.0005306
-0.14045933 3.8101428 0.99291259
-0.12942268 3.8099451 0.98739004
-0.1279863 3.8022738 0.98890227
-0.12655088 3.7946146 0.99041301
-0.1249074 3.7871265 0.99176711
-0.12314855 3.7797372 0.99303508
-0.12139161 3.7723575 0.99430066
-0.1196373 3.7649865 0.99556506
-0.1178842 3.7576239 0.9968276
-0.11613392 3.7502692 0.99808985
-0.11438416 3.7429245 0.99934828
-0.11263772 3.7355874 1.0006075
-0.11089344 3.7282591 1.0018642
-0.10915059 3.7209392 1.0031198
-0.10741131 3.7136278 1.0043747
-0.10567155 3.7063255 1.0056264
-0.10393514 3.6990306 1.0068778
-0.10220017 3.6917448 1.0081272
-0.10026665 3.6846135 1.0092304
-0.098174877 3.6776063 1.0102189
-0.096084535 3.6706047 1.0112059
-0.093996346 3.6636105 1.0121915
-0.091909833 3.6566219 1.0131757
-0.08982522 3.6496403 1.0141597
-0.087742753 3.6426644 1.0151428
-0.085661486 3.6356959 1.0161248
-0.083582364 3.6287334 1.0171062
-0.081505857 3.6217773 1.0180873
-0.079431266 3.6148269 1.0190665
-0.074996844 3.6095273 1.0183713
-0.070280209 3.6044199 1.0174764
-0.065227993 3.5995362 1.0163468
-0.06017077 3.594646 1.0152178
-0.055109732 3.5897517 1.014086
-0.05004178 3.5848517 1.0129545
-0.044970013 3.579947 1.011821
-0.039632484 3.5752118 1.0105039
-0.033736039 3.5708451 1.0087968
-0.02782958 3.5664709 1.0070869
-0.024252938 3.5605247 1.0070138
-0.021125816 3.5542779 1.0072567
-0.017999409 3.5480337 1.0074977
-0.014702584 3.5419035 1.0076207
-0.010598483 3.5363059 1.0071794
-0.0064917603 3.5307064 1.006736
-0.0023833681 3.5251043 1.006294
0.0017264556 3.5194993 1.0058522
0.0058381865 3.5138934 1.0054092
0.010131777 3.5084009 1.004841
0.016335716 3.5041316 1.0029507
0.022549909 3.4998534 1.0010564
0.028776258 3.4955683 0.9991585
0.03741445 3.492799 0.99559844
0.052772131 3.4942467 0.98741001
-0.14115874 3.8975232 0.97582245
-0.13970327 3.8897302 0.97735512
-0.13824804 3.8819499 0.97888499
-0.13679565 3.8741791 0.98041338
-0.15912575 3.8474584 0.99943519
-0.15768889 3.8397722 1.0009466
-0.15625417 3.8320966 1.0024557
-0.15482114 3.8244326 1.0039634
-0.15339072 3.8167784 1.0054692
-0.15196292 3.8091345 1.0069726
-0.14024822 3.8095205 1.0009573
-0.12635319 3.811552 0.99336618
-0.12319268 3.8052173 0.99361652
-0.12143168 3.7978065 0.99488401
-0.11967355 3.7904027 0.99615198
-0.11791685 3.7830088 0.99741685
-0.11616183 3.7756245 0.99868029
-0.11440942 3.7682478 0.99994254
-0.11265989 3.7608798 1.0012046
-0.1109101 3.7535217 1.0024623
-0.10916319 3.7461705 1.0037203
-0.10741914 3.7388282 1.0049778
-0.10567771 3.7314935 1.0062326
-0.10393558 3.7241697 1.0074856
-0.10219772 3.7168529 1.0087384
-0.10015719 3.7097697 1.0097698
-0.098058969 3.7027361 1.010758
-0.095964573 3.6957071 1.0117468
-0.093871608 3.6886854 1.0127354
-0.091781035 3.6816704 1.0137222
-0.0896907 3.6746621 1.0147069
-0.087603934 3.6676588 1.015692
-0.085519083 3.6606624 1.0166764
-0.083435185 3.6536736 1.0176592
-0.081353433 3.6466904 1.0186419
-0.079274304 3.6397138 1.0196228
-0.077197082 3.6327431 1.0206037
-0.075121544 3.6257796 1.0215826
-0.07277786 3.61901 1.0223716
-0.069329686 3.6130161 1.0223771
-0.06427747 3.6081357 1.0212512
-0.059220005 3.6032495 1.0201237
-0.054155871 3.5983589 1.018995
-0.049086962 3.5934629 1.0178654
-0.044012811 3.588562 1.0167333
-0.038320392 3.5840721 1.0151715
-0.032420609 3.579711 1.0134678
-0.026511764 3.5753415 1.0117607
-0.020593623 3.5709662 1.010052
-0.014414012 3.5667527 1.0081633
-0.0096608931 3.5615733 1.0072746
-0.005543916 3.5559645 1.0068318
-0.0014257472 3.5503545 1.0063885
0.0026955213 3.5447423 1.0059451
0.0068170289 3.5391269 1.0055015
0.011875 3.5341198 1.0044093
0.018097293 3.5298612 1.0025127
0.024329839 3.5255949 1.0006131
0.030572878 3.5213206 0.99871063
0.04259583 3.5207424 0.9928214
-0.13695595 3.9000123 0.98103416
-0.13550143 3.8922188 0.98256236
-0.13405 3.8844347 0.98408884
-0.13260095 3.8766608 0.98561436
-0.13115335 3.8688991 0.9871366
-0.15353283 3.8422306 1.006098
-0.15210073 3.8345523 1.0076047
-0.15067054 3.8268855 1.0091084
-0.14924254 3.8192291 1.0106101
-0.14781831 3.8115819 1.0121104
-0.14014296 3.8088176 1.0090594
-0.12636662 3.8107641 1.0015796
-0.11794928 3.808507 0.99800855
-0.11619045 3.8010914 0.99927461
-0.11443423 3.7936835 1.0005389
-0.11267967 3.7862837 1.0018029
-0.11092822 3.7788939 1.0030645
-0.10917725 3.771512 1.0043246
-0.10742842 3.7641399 1.0055835
-0.10568293 3.7567742 1.0068408
-0.10393864 3.749418 1.0080975
-0.10214859 3.7421072 1.0093167
-0.10004441 3.7350388 1.0103087
-0.09794309 3.727977 1.011301
-0.095844395 3.7209208 1.0122918
-0.093746416 3.7138729 1.0132807
-0.091650836 3.7068298 1.0142699
-0.089557618 3.6997926 1.015258
-0.08746513 3.6927638 1.0162441
-0.085375264 3.6857417 1.0172297
-0.083287545 3.678725 1.0182158
-0.081201978 3.6717138 1.0191997
-0.079118311 3.6647098 1.0201832
-0.077034414 3.6577141 1.0211648
-0.074955292 3.6507227 1.0221466
-0.072465494 3.6440296 1.0228367
-0.069947809 3.6373608 1.0235049
-0.0674299 3.6306973 1.0241723
-0.064915322 3.624038 1.0248388
-0.062401693 3.6173818 1.0255063
-0.058266148 3.6118567 1.0250318
-0.053201534 3.6069689 1.0239053
-0.048132624 3.6020763 1.0227777
-0.042899501 3.5972867 1.02154
-0.037006151 3.5929375 1.0198411
-0.031105177 3.5885813 1.0181419
-0.025192995 3.5842183 1.0164374
-0.019272469 3.5798481 1.0147325
-0.012772522 3.5758538 1.0126263
-0.0055837519 3.5723038 1.0100468
0.0016212305 3.5687447 1.0074611
0.0077989483 3.5644836 1.0055948
0.01362511 3.5599756 1.0039766
0.019866236 3.5557292 1.0020741
0.02611666 3.5514729 1.000169
0.032418333 3.5472362 0.99823445
0.047812212 3.5488954 0.9900257
-0.13275075 3.9025025 0.98624617
-0.13130029 3.8947053 0.98777241
-0.12985124 3.8869202 0.98929459
-0.12840506 3.8791449 0.99081612
-0.1268259 3.8714869 0.99223745
-0.14937651 3.8446882 1.0112523
-0.14790724 3.8370395 1.0127262
-0.14615364 3.8296266 1.0139886
-0.14440076 3.8222234 1.0152495
-0.14265145 3.8148289 1.0165095
-0.14013922 3.8080378 1.0172139
-0.12638122 3.8099794 1.0097715
-0.11270091 3.8118 1.0024043
-0.11094444 3.8043795 1.0036678
-0.10918964 3.7969658 1.0049306
-0.10743772 3.7895625 1.0061926
-0.1056877 3.782166 1.0074518
-0.10394006 3.7747796 1.0087109
-0.10203989 3.7675173 1.0098571
-0.099932365 3.7604208 1.0108515
-0.09782508 3.7533324 1.0118444
-0.095722802 3.7462478 1.0128379
-0.093619809 3.7391717 1.0138285
-0.091519691 3.7321022 1.0148199
-0.089422189 3.7250378 1.0158098
-0.087324925 3.7179818 1.0167975
-0.085230522 3.710932 1.017786
-0.083138511 3.7038879 1.0187728
-0.081048161 3.6968498 1.0197597
-0.078958288 3.6898193 1.0207446
-0.076872952 3.6827943 1.0217295
-0.074676074 3.6758568 1.0226341
-0.072151244 3.669162 1.023303
-0.069625936 3.6624711 1.0239731
-0.067104913 3.6557841 1.0246422
-0.064584129 3.6491008 1.0253109
-0.062065255 3.6424234 1.0259781
-0.0595471 3.6357491 1.0266463
-0.057031091 3.6290791 1.0273136
-0.054515082 3.6224134 1.0279794
-0.05200313 3.615752 1.0286461
-0.047176141 3.6106932 1.0276927
-0.041589074 3.6061509 1.0262096
-0.035693105 3.6018078 1.024514
-0.029787362 3.5974576 1.0228171
-0.023873748 3.5930994 1.0211172
-0.017948695 3.5887361 1.0194144
-0.011128888 3.5849624 1.0170925
-0.0039360649 3.5814219 1.0145167
0.0032744007 3.5778728 1.0119352
0.010880049 3.5745656 1.009087
0.020258518 3.5724134 1.0050167
0.029674415 3.5702543 1.000932
0.042252701 3.5701435 0.99467254
0.05803198 3.572083 0.98622006
-0.12687868 3.8973708 0.99282146
-0.12510192 3.8898463 0.99410069
-0.12332758 3.8823318 0.9953782
-0.12155535 3.874826 0.99665403
-0.14443846 3.8477659 1.0158392
-0.14268389 3.8403397 1.0171008
-0.14093173 3.8329225 1.018362
-0.13918337 3.8255134 1.0196213
-0.13743478 3.8181138 1.0208788
-0.13568905 3.8107228 1.0221345
-0.12639488 3.8091965 1.017943
-0.11255989 3.8111467 1.0104874
-0.10569272 3.8076708 1.0080658
-0.1039415 3.8002517 1.0093272
-0.10193121 3.7930415 1.0103989
-0.099819146 3.7859173 1.0113963
-0.097708993 3.7787995 1.0123919
-0.095600039 3.7716892 1.0133859
-0.093493707 3.7645848 1.0143799
-0.091389045 3.7574866 1.0153731
-0.089286052 3.7503955 1.0163652
-0.087185927 3.7433112 1.017356
-0.085086748 3.736233 1.0183455
-0.082989246 3.7291617 1.0193342
-0.08089412 3.7220974 1.020323
-0.078800194 3.7150395 1.0213089
-0.076709129 3.7079878 1.0222955
-0.074366383 3.7011266 1.0231013
-0.071835347 3.6944087 1.0237728
-0.069305502 3.6876948 1.0244436
-0.066777796 3.6809843 1.0251144
-0.064251766 3.6742785 1.0257845
-0.061726451 3.667578 1.0264531
-0.05920352 3.6608799 1.0271223
-0.056680836 3.6541877 1.0277904
-0.054161243 3.6474988 1.0284595
-0.051643327 3.6408138 1.0291268
-0.049126361 3.6341341 1.0297937
-0.046610828 3.6274571 1.0304607
-0.04357833 3.6211455 1.0307654
-0.040276743 3.6150208 1.0308826
-0.034377914 3.6106827 1.0291904
-0.028470738 3.606338 1.0274962
-0.022552121 3.6019869 1.0257993
-0.016626826 3.5976288 1.0241001
-0.0094847754 3.5940793 1.0215628
-0.0022871853 3.5905471 1.0189916
0.0049275705 3.5870075 1.0164151
0.012803264 3.5838892 1.0133874
0.022190792 3.5817537 1.0093235
0.031613842 3.5796099 1.005245
-0.12159502 3.9007287 0.99724686
-0.11982136 3.8931992 0.99852508
-0.11804818 3.8856795 0.99979949
-0.11627787 3.8781679 1.0010728
-0.11450899 3.8706667 1.002345
-0.13745578 3.8436439 1.0214812
-0.13570647 3.8362207 1.0227388
-0.13395907 3.8288062 1.0239971
-0.13221309 3.8214014 1.025252
-0.13046999 3.8140042 1.0265063
-0.12640905 3.8084152 1.0260917
-0.11259238 3.81036 1.0186747
-0.099705949 3.8115277 1.0119433
-0.097591504 3.8043821 1.0129406
-0.095476575 3.7972438 1.0139368
-0.093366191 3.7901115 1.0149326
-0.091257237 3.7829862 1.015928
-0.08914946 3.7758679 1.0169215
-0.087043844 3.7687552 1.0179141
-0.084941328 3.7616491 1.0189071
-0.082838573 3.7545512 1.0198971
-0.080738194 3.7474585 1.020887
-0.078641884 3.7403731 1.0218765
-0.076545089 3.7332933 1.0228642
-0.074055515 3.7265122 1.0235715
-0.071518511 3.7197702 1.0242449
-0.068982936 3.713033 1.0249159
-0.066449039 3.7063007 1.0255874
-0.063916326 3.6995711 1.0262592
-0.061386712 3.6928468 1.0269302
-0.058857344 3.6861267 1.0276
-0.056331314 3.6794095 1.0282708
-0.053806473 3.6726975 1.0289407
-0.051280923 3.6659904 1.0296091
-0.048758704 3.659287 1.0302782
-0.04611399 3.6526742 1.0308596
-0.042984474 3.6464071 1.0311028
-0.039855439 3.6401412 1.0313443
-0.036727361 3.6338766 1.0315874
-0.03359976 3.6276133 1.0318291
-0.030472871 3.6213517 1.0320716
-0.027151732 3.6152256 1.0321778
-0.021232162 3.6108787 1.0304846
-0.015025141 3.6067154 1.0285968
-0.0078401882 3.6032023 1.0260363
-0.00063663791 3.5996804 1.0234696
0.0065838392 3.5961502 1.0208968
0.014729103 3.5932205 1.0176916
0.024125688 3.5911021 1.0136338
0.033557083 3.5889759 1.0095614
0.046455469 3.5891159 1.0031182
-0.11453507 3.8965554 1.0029522
-0.11276405 3.8890302 1.0042249
-0.11099634 3.8815131 1.0054972
-0.10923056 3.8740056 1.0067666
-0.13222267 3.8469508 1.0258641
-0.13047573 3.8395226 1.0271206
-0.12873024 3.8321025 1.028376
-0.12698761 3.8246925 1.029629
-0.12524615 3.8172913 1.0308807
-0.12350713 3.8098977 1.0321323
-0.11269568 3.809521 1.0268916
-0.099062763 3.8112717 1.0196494
-0.091123529 3.8085999 1.0164849
-0.089011945 3.8014538 1.0174805
-0.086901546 3.7943139 1.0184759
-0.084793545 3.7871797 1.0194702
-0.082687683 3.7800534 1.020463
-0.080583967 3.772933 1.0214548
-0.078481205 3.76582 1.0224457
-0.076285735 3.7587836 1.0233696
-0.073742762 3.7520137 1.0240437
-0.07119932 3.7452486 1.024718
-0.068658732 3.7384877 1.0253919
-0.066118628 3.7317314 1.0260637
-0.063581385 3.7249787 1.0267373
-0.061045326 3.7182317 1.0274086
-0.058510229 3.7114871 1.0280803
-0.055978712 3.7047467 1.0287533
-0.053446952 3.6980119 1.0294236
-0.050917819 3.6912804 1.0300944
-0.048388448 3.6845546 1.0307637
-0.045526356 3.678072 1.0311989
-0.042388495 3.6717868 1.0314413
-0.039251827 3.6655042 1.031684
-0.036116831 3.6592209 1.0319273
-0.032981355 3.6529412 1.0321689
-0.02984779 3.6466618 1.0324116
-0.026713271 3.6403835 1.0326545
-0.023581134 3.6341078 1.0328966
-0.020448763 3.6278334 1.0331393
-0.017318057 3.6215587 1.0333821
-0.013335507 3.61587 1.0330364
-0.0061927396 3.6123328 1.030514
0.0010141474 3.6088209 1.027951
0.0082405852 3.6053007 1.0253826
0.016656848 3.6025627 1.022001
0.026062252 3.6004605 1.0179491
0.03550056 3.59835 1.0138835
0.048560064 3.5986173 1.0073478
0.063283719 3.599937 0.99968815
-0.10924472 3.899914 1.0073841
-0.10747536 3.8923843 1.0086551
-0.10571054 3.8848624 1.0099248
-0.1037343 3.8775167 1.0110399
-0.10160528 3.8703022 1.0120438
-0.12524022 3.8428266 1.0315058
-0.12349664 3.8354032 1.0327585
-0.12175593 3.8279862 1.0340098
-0.11989769 3.820673 1.0351745
-0.11779755 3.813555 1.0361642
-0.11288501 3.8086169 1.0351483
-0.09927211 3.8103631 1.0279437
-0.085566968 3.812119 1.0206898
-0.082535379 3.80567 1.021031
-0.080427371 3.7985215 1.0220248
-0.07831984 3.7913804 1.0230173
-0.075978488 3.7844248 1.0238431
-0.073428363 3.7776313 1.0245184
-0.07087943 3.7708428 1.0251935
-0.068332642 3.7640588 1.0258683
-0.065787047 3.7572792 1.0265419
-0.063244797 3.7505033 1.0272166
-0.060702533 3.743732 1.0278907
-0.058162902 3.7369647 1.0285636
-0.055624701 3.7302005 1.0292377
-0.053087454 3.7234423 1.0299097
-0.050550688 3.7166884 1.0305805
-0.048017256 3.7099383 1.0312523
-0.044935644 3.7035885 1.03154
-0.041791104 3.6972861 1.0317832
-0.038646568 3.6909852 1.0320256
-0.035502985 3.6846857 1.032268
-0.032361306 3.6783867 1.0325119
-0.02921987 3.6720896 1.0327549
-0.026080338 3.6657941 1.0329984
-0.022938425 3.6595006 1.0332412
-0.019799136 3.653208 1.0334839
-0.016432939 3.6470754 1.0335689
-0.012298083 3.6414759 1.0331247
-0.008162274 3.6358733 1.0326797
-0.0040240786 3.6302688 1.0322353
0.00011650019 3.6246622 1.0317901
0.004259225 3.6190534 1.0313439
0.0098978067 3.6144574 1.0298721
0.018586976 3.611913 1.0263139
0.02800001 3.6098278 1.022269
0.037447374 3.6077342 1.018208
0.050666098 3.6081285 1.0115818
0.065035805 3.6092362 1.0041862
-0.1014955 3.8962891 1.0125957
-0.099364825 3.8890526 1.0136009
-0.097235098 3.8818221 1.0146042
-0.09510728 3.8745999 1.0156056
-0.11977043 3.8463151 1.0357306
-0.11766552 3.83917 1.0367227
-0.11556371 3.832031 1.0377133
-0.1134619 3.824899 1.0387025
-0.11136344 3.8177741 1.0396924
-0.10926784 3.8106546 1.0406804
-0.099480756 3.8094556 1.0362151
-0.085795619 3.8112075 1.0289996
-0.075668178 3.8101845 1.0243174
-0.073112324 3.8033674 1.0249953
-0.070558131 3.7965558 1.0256714
-0.068006568 3.789747 1.0263491
-0.065455012 3.782944 1.027023
-0.06290631 3.776144 1.0276992
-0.060358807 3.7693491 1.0283741
-0.057812493 3.762558 1.0290483
-0.05526809 3.7557719 1.0297232
-0.052725118 3.7489893 1.0303961
-0.050185245 3.7422106 1.0310709
-0.047494501 3.7355483 1.0316371
-0.044341378 3.7292254 1.0318812
-0.041189209 3.7229061 1.0321249
-0.038038943 3.7165861 1.0323694
-0.034888204 3.7102695 1.0326128
-0.031737942 3.7039528 1.0328565
-0.028590539 3.6976376 1.0331002
-0.025441946 3.6913249 1.0333434
-0.022293115 3.6850135 1.0335857
-0.019146906 3.6787033 1.0338296
-0.015403407 3.6728153 1.0336605
-0.011257345 3.6672072 1.0332142
-0.0071110427 3.6615958 1.032769
-0.0029611648 3.6559839 1.0323219
0.0011889525 3.650368 1.0318761
0.0053412155 3.6447506 1.0314292
0.0094956243 3.6391311 1.0309821
0.014442056 3.6340501 1.0299937
0.020761361 3.6298962 1.0280688
0.027090199 3.6257339 1.0261406
0.033430487 3.6215646 1.0242093
0.039783888 3.6173887 1.0222732
0.054700587 3.6189418 1.0145094
-0.094983183 3.9006181 1.0161679
-0.092852995 3.893373 1.0171721
-0.090724461 3.8861351 1.0181744
-0.088598542 3.8789039 1.0191755
-0.086473353 3.8716791 1.0201761
-0.11121687 3.8434198 1.0402585
-0.10911482 3.8362727 1.0412486
-0.1070161 3.829133 1.0422375
-0.10491883 3.8219984 1.0432258
-0.1028225 3.814872 1.0442126
-0.09968964 3.8085518 1.0444651
-0.086023338 3.810297 1.0372872
-0.07252527 3.8118567 1.0302441
-0.065121323 3.8087251 1.0275074
-0.062565945 3.8019025 1.0281832
-0.060012713 3.7950842 1.0288597
-0.057460673 3.788269 1.029536
-0.054910544 3.7814596 1.0302116
-0.052362081 3.7746534 1.0308864
-0.04981529 3.7678514 1.0315608
-0.04690646 3.7613239 1.0319809
-0.043745469 3.7549839 1.0322255
-0.040585898 3.7486467 1.0324693
-0.037428241 3.7423093 1.0327137
-0.034269869 3.7359736 1.032958
-0.031111738 3.72964 1.0332017
-0.02795694 3.7233067 1.0334462
-0.024801429 3.7169764 1.0336906
-0.021646634 3.7106469 1.0339347
-0.018492553 3.7043188 1.0341778
-0.014367461 3.6986835 1.0337517
-0.010210908 3.6930666 1.0333045
-0.0060533988 3.6874475 1.0328571
-0.0018949361 3.6818256 1.03241
0.0022659111 3.6762018 1.0319628
0.0064274743 3.6705742 1.0315158
0.010593329 3.6649473 1.0310674
0.016392563 3.6604464 1.0295017
0.022730459 3.6563044 1.0275713
0.029079799 3.6521564 1.0256364
0.035438202 3.6479986 1.0237004
0.044439148 3.6456258 1.0199674
0.060730375 3.6481731 1.0112797
-0.086329713 3.8977015 1.0207484
-0.084202372 3.8904548 1.0217502
-0.082076691 3.8832166 1.0227506
-0.079953887 3.8759835 1.0237513
-0.10475677 3.847677 1.0438
-0.10265686 3.8405216 1.0447897
-0.10055886 3.8333735 1.0457779
-0.09846206 3.8262315 1.0467654
-0.096367888 3.8190973 1.0477515
-0.094275378 3.811969 1.0487367
-0.086267978 3.809376 1.0455639
-0.072873831 3.8108649 1.0386182
-0.059391946 3.8123641 1.0316268
-0.054551825 3.8072655 1.0307022
-0.051997878 3.8004351 1.0313785
-0.049444884 3.7936099 1.0320543
-0.046314154 3.7872224 1.0323261
-0.043146476 3.7808652 1.0325702
-0.039978802 3.7745097 1.0328152
-0.036813747 3.7681534 1.0330603
-0.033648696 3.7618008 1.0333045
-0.030484362 3.7554488 1.0335497
-0.02731931 3.7490985 1.0337931
-0.02415688 3.7427487 1.0340379
-0.020994693 3.7364013 1.0342824
-0.017490717 3.7303023 1.0342916
-0.013326294 3.7246792 1.0338436
-0.0091599636 3.719054 1.0333952
-0.0049914867 3.7134278 1.0329468
-0.00082038681 3.7077982 1.0324979
0.0033492837 3.7021644 1.0320507
0.007523722 3.6965301 1.0316015
0.012008009 3.6911104 1.0309398
0.018354485 3.6869893 1.0290064
0.024710018 3.6828599 1.0270708
0.031078907 3.6787243 1.0251311
0.037458051 3.6745796 1.0231874
0.050431967 3.6749663 1.0167567
-0.079795226 3.9020379 1.0243319
-0.077305369 3.8950706 1.0250754
-0.074730188 3.8881774 1.025757
-0.072157145 3.881289 1.0264382
-0.069585547 3.8744049 1.0271187
-0.096185789 3.8447783 1.0483361
-0.094089463 3.8376215 1.0493239
-0.091994807 3.8304725 1.0503112
-0.08990182 3.8233294 1.0512966
-0.0874568 3.8164649 1.0520337
-0.084921934 3.8096752 1.0527049
-0.073222384 3.8098769 1.0469688
-0.059760284 3.8113704 1.0400136
-0.046329398 3.8127825 1.033097
-0.042544652 3.8068686 1.0329181
-0.039370533 3.8004944 1.0331631
-0.036196895 3.7941213 1.0334082
-0.033023968 3.7877502 1.0336528
-0.029851764 3.7813797 1.033898
-0.026680987 3.7750106 1.0341433
-0.023510449 3.7686436 1.0343894
-0.020340627 3.7622786 1.0346339
-0.016454583 3.7564383 1.0343838
-0.012280382 3.7508063 1.0339351
-0.0081033213 3.745172 1.0334868
-0.0039241146 3.739537 1.0330371
0.00025747693 3.7338986 1.0325869
0.0044378773 3.728256 1.0321381
0.0086213769 3.7226129 1.0316887
0.0139618 3.7177885 1.0304474
0.020324962 3.7136781 1.0285099
0.026702426 3.7095635 1.0265669
0.033089433 3.7054393 1.0246222
0.040135704 3.701761 1.0222318
0.056469802 3.7045429 1.0135224
-0.069257423 3.9005952 1.0276052
-0.06668248 3.8936903 1.0282881
-0.064108483 3.8867905 1.0289696
-0.061535683 3.8798959 1.0296497
-0.058965508 3.8730032 1.0303308
-0.087103814 3.8422699 1.0525228
-0.084563218 3.8354573 1.0531957
-0.082022622 3.828649 1.0538682
-0.079483464 3.8218443 1.0545392
-0.076947637 3.8150442 1.0552117
-0.07356976 3.8088918 1.055295
-0.060127676 3.8103793 1.0483775
-0.046760418 3.8117537 1.0415286
-0.033551887 3.8129513 1.0348051
-0.029217519 3.8074338 1.0342492
-0.02603887 3.8010473 1.034495
-0.022860462 3.7946627 1.0347397
-0.019598395 3.788341 1.0349281
-0.015415134 3.7827036 1.0344774
-0.01123068 3.7770622 1.0340289
-0.0070428886 3.7714205 1.0335785
-0.0028515211 3.7657764 1.0331275
0.0013400851 3.7601299 1.0326762
0.0055316924 3.7544787 1.0322267
0.0097283069 3.7488282 1.0317749
0.015922956 3.7446115 1.0299549
0.022309002 3.7405179 1.0280098
0.028705297 3.7364154 1.0260611
0.035112802 3.7323043 1.024109
0.046135139 3.7314467 1.0190172
0.062558837 3.7343605 1.0102595
-0.058612589 3.8992181 1.0308257
-0.056038357 3.8923073 1.0315077
-0.05346508 3.8854001 1.0321888
-0.050893709 3.8784976 1.0328693
-0.079112835 3.847698 1.0550354
-0.076569378 3.840874 1.0557071
-0.074028783 3.8340545 1.0563805
-0.071490332 3.8272393 1.0570523
-0.068952836 3.8204281 1.0577245
-0.066417255 3.8136218 1.0583957
-0.047189064 3.8107283 1.0499349
-0.034001503 3.8119211 1.0432481
-0.02073003 3.813122 1.0365187
-0.014369032 3.8091006 1.0345722
-0.010172897 3.8034525 1.0341208
-0.0059741363 3.7978017 1.0336699
-0.001774422 3.7921474 1.0332185
0.0024274378 3.7864921 1.0327672
0.0066314433 3.780834 1.0323143
0.011506864 3.7756624 1.031404
0.017899102 3.7715878 1.0294567
0.024304215 3.7675064 1.0275059
0.030719582 3.763417 1.0255519
0.037143774 3.7593167 1.023596
0.052175287 3.761369 1.0157822
-0.047117114 3.8984888 1.0334746
-0.04391915 3.8920569 1.0337211
-0.040722135 3.8856256 1.0339686
-0.037524644 3.8791971 1.0342155
-0.068555988 3.8463063 1.058228
-0.066013955 3.8394756 1.0588998
-0.063473836 3.832649 1.0595725
-0.060935147 3.8258281 1.0602437
-0.058399085 3.8190093 1.0609164
-0.034449697 3.8108943 1.0516673
-0.021198241 3.8120899 1.0449739
-0.0082811611 3.8129802 1.0385256
0.0035219183 3.8129873 1.0328572
0.0077359392 3.8073206 1.0324045
0.013473448 3.8027749 1.0309092
0.019884996 3.7987134 1.0289564
0.026308941 3.7946453 1.0270003
0.032745048 3.7905691 1.0250404
0.041798886 3.7883821 1.0212996
0.058272369 3.7915413 1.0125148
-0.033700611 3.899236 1.034817
-0.030495727 3.8927917 1.0350639
-0.027293462 3.8863487 1.0353109
-0.02409287 3.8799057 1.0355581
-0.057976246 3.8449111 1.0614263
-0.055291928 3.8381839 1.0619994
-0.052131645 3.831826 1.0622441
-0.04897207 3.8254678 1.062488
-0.0087519968 3.8119583 1.0469805
0.0041972757 3.81283 1.0405455
0.016970903 3.8135183 1.034246
0.029617744 3.8140602 1.028048
0.042159971 3.8144748 1.021935
0.054506283 3.8146951 1.0159687
0.066819727 3.8148415 1.0100383
-0.019655343 3.9004333 1.035767
-0.0154294 3.8947637 1.0353131
-0.011201791 3.8890929 1.0348587
-0.0069729858 3.8834183 1.0344039
-0.0451294 3.8452358 1.0630875
-0.041963626 3.8388629 1.063333
0.029159784 3.8130815 1.036533
-0.0016528774 3.9046578 1.0340433
0.0025892803 3.8989706 1.0335878
0.0068366826 3.8932812 1.0331312
0.012977233 3.8890402 1.0313778
0.03444485 3.9047375 1.0249474
-0.12209773 3.8142648 0.77311826
-0.1396966 3.9006298 0.79509258
-0.13950658 3.8943548 0.79494381
-0.13931847 3.8880787 0.7947948
-0.13912916 3.8818018 0.79464531
-0.1389401 3.8755238 0.79449558
-0.13875151 3.8692458 0.79434681
-0.13856292 3.8629668 0.79419732
-0.13837433 3.8566868 0.79404831
-0.13704991 3.8127058 0.79300213
-0.13685989 3.8064198 0.79285336
-0.13667107 3.8001328 0.79270387
-0.13648176 3.7938449 0.79255438
-0.1362927 3.7875559 0.79240465
-0.13610339 3.7812669 0.79225516
-0.13591361 3.774977 0.79210496
-0.13572383 3.7686858 0.79195619
-0.13553548 3.762394 0.79180765
-0.1353457 3.7561009 0.79165721
-0.13515639 3.7498078 0.79150772
-0.13496733 3.7435138 0.79135799
-0.13477731 3.7372189 0.79120803
-0.13458776 3.7309229 0.79105902
-0.1343987 3.724627 0.79090953
-0.13420868 3.718329 0.79075933
-0.13401866 3.7120309 0.79060912
-0.13382959 3.7057319 0.79045963
-0.13364053 3.6994331 0.79031014
-0.13345027 3.6931319 0.79016066
-0.13326097 3.686831 0.79001117
-0.13307118 3.6805289 0.78986096
-0.13288116 3.674226 0.78971076
-0.13269138 3.667922 0.78956056
-0.13250208 3.661618 0.78941107
-0.13231158 3.655313 0.78926158
-0.1321218 3.6490071 0.78911138
-0.13193274 3.6427 0.78896189
-0.13174272 3.6363921 0.78881168
-0.13155222 3.630084 0.788661
-0.13136148 3.6237741 0.78851128
-0.13117242 3.6174641 0.78836179
-0.11938405 3.6113241 0.7790513
-0.15032244 3.9052627 0.81146359
-0.15132332 3.8988867 0.81225276
-0.15118122 3.8926396 0.81214023
-0.15103889 3.8863916 0.81202841
-0.15089655 3.8801427 0.81191683
-0.15075421 3.8738937 0.81180429
-0.15061116 3.8676438 0.81169176
-0.15046859 3.8613937 0.81157994
-0.15032673 3.8551428 0.81146741
-0.19656253 3.8445139 0.84785962
-0.19643903 3.8383567 0.84776235
-0.19631553 3.8321998 0.84766388
-0.19619107 3.8260429 0.84756613
-0.14932871 3.8113699 0.81068254
-0.14918637 3.8051138 0.81057072
-0.14904356 3.7988579 0.81045771
-0.14890099 3.7926009 0.81034589
-0.14875865 3.7863438 0.81023407
-0.14861655 3.7800858 0.81012154
-0.1484735 3.7738268 0.81000924
-0.14833117 3.7675679 0.80989742
-0.14818835 3.761308 0.80978441
-0.14804578 3.7550468 0.80967259
-0.14790249 3.748786 0.80956006
-0.14775991 3.7425249 0.80944824
-0.14761734 3.7362618 0.80933523
-0.14747477 3.7299988 0.80922365
-0.14733171 3.723736 0.80911112
-0.1471889 3.7174718 0.80899787
-0.14704633 3.7112069 0.80888605
-0.14690328 3.704942 0.80877399
-0.14676046 3.6986759 0.80866075
-0.14661717 3.69241 0.80854821
-0.1464746 3.6861429 0.80843639
-0.14633203 3.6798749 0.80832314
-0.14618874 3.6736071 0.80821109
-0.14604616 3.6673381 0.80809927
-0.14590311 3.6610689 0.80798697
-0.14576125 3.654799 0.8078742
-0.14561701 3.6485281 0.80776143
-0.14547372 3.642257 0.8076489
-0.14533114 3.6359851 0.80753565
-0.14518857 3.6297121 0.80742407
-0.14504528 3.6234391 0.80731153
-0.14490199 3.617166 0.80719757
-0.13954234 3.6109681 0.80297971
-0.12801385 3.6048262 0.79390574
-0.11303949 3.5986712 0.78211975
-0.15880203 3.9038486 0.82607341
-0.15866017 3.8976257 0.82596254
-0.15851855 3.8914018 0.8258512
-0.15837765 3.8851779 0.82574081
-0.15823674 3.8789527 0.82563043
-0.15809393 3.8727267 0.82551885
-0.15795302 3.8665009 0.82540822
-0.1578114 3.8602748 0.82529712
-0.15766954 3.8540478 0.82518601
-0.19816184 3.8439898 0.85694766
-0.19804668 3.8378439 0.85685778
-0.19793248 3.8316977 0.85676837
-0.19781733 3.8255508 0.85667825
-0.19770312 3.8194039 0.85658884
-0.15667796 3.8104408 0.82440734
-0.15653706 3.8042088 0.82429695
-0.1563952 3.7979758 0.82418585
-0.15625334 3.7917428 0.82407475
-0.15611148 3.7855089 0.82396364
-0.15596914 3.7792749 0.82385206
-0.15582848 3.7730398 0.82374144
-0.15568662 3.7668049 0.82363033
-0.1555438 3.7605679 0.82351875
-0.15540218 3.7543318 0.82340741
-0.15526032 3.7480938 0.82329631
