# .PCD v0.7 - Point Cloud Data file format
VERSION 0.7
FIELDS x y z
SIZE 4 4 4
TYPE F F F
COUNT 1 1 1
WIDTH 1508
HEIGHT 1
VIEWPOINT 0 0 0 1 0 0 0
POINTS 1508
DATA ascii
-1.487349 3.1739388 0.91512752
-1.4876199 3.1695375 0.91549587
-1.48789 3.1651378 0.91586471
-1.4881598 3.1607397 0.91623211
-1.4882612 3.1563017 0.91637087
-1.4879825 3.1517677 0.91599059
-1.4877021 3.1472316 0.91560912
-1.4874225 3.1426947 0.91522837
-1.4870148 3.1381228 0.91467214
-1.4861015 3.1334157 0.91342807
-1.4851872 3.1287036 0.91218305
-1.4842725 3.1239867 0.91093636
-1.4829845 3.1191638 0.90918207
-1.4812176 3.1142027 0.90677524
-1.4794452 3.1092308 0.90436268
-1.4774234 3.1041799 0.90160751
-1.4743172 3.0988116 0.89737701
-1.4711986 3.0934248 0.89312983
-1.4663143 3.0875127 0.88647676
-1.4602897 3.0812447 0.87827015
-1.4483876 3.0732257 0.86205912
-1.426628 3.2480075 0.84000683
-1.4366851 3.2452874 0.85366082
-1.44419 3.2421315 0.86385083
-1.449738 3.2386365 0.871382
-1.4548988 3.2350945 0.87838984
-1.4585655 3.2312815 0.88336849
-1.4621537 3.2274725 0.88823962
-1.4653118 3.2235947 0.89252663
-1.4676229 3.2195575 0.89566422
-1.4699275 3.2155325 0.8987937
-1.4722254 3.2115176 0.90191388
-1.4738302 3.2073646 0.90409184
-1.4752977 3.2031915 0.9060843
-1.4767613 3.1990247 0.90807199
-1.4782231 3.1948657 0.91005611
-1.479109 3.1905837 0.91125894
-1.4799364 3.1862936 0.9123826
-1.4807627 3.1820066 0.91350412
-1.481585 3.1777246 0.91462111
-1.4820056 3.1733506 0.91519189
-1.4822781 3.1689427 0.9155612
-1.4825486 3.1645367 0.91592956
-1.4828199 3.1601326 0.91629815
-1.4828222 3.1556625 0.9163003
-1.4825405 3.1511207 0.91591883
-1.4822601 3.1465788 0.91553736
-1.481979 3.1420336 0.91515517
-1.4814473 3.1374238 0.91443491
-1.4805299 3.1327088 0.9131887
-1.4796118 3.1279888 0.91194177
-1.4786952 3.1232648 0.91069746
-1.4772491 3.1183918 0.90873337
-1.4754883 3.1134257 0.9063437
-1.4737235 3.1084487 0.90394783
-1.4714651 3.1033247 0.90088177
-1.4683419 3.0979457 0.89664102
-1.4652064 3.0925467 0.89238477
-1.4597912 3.0864778 0.88503313
-1.4535205 3.0801318 0.87651944
-1.4369645 3.0707498 0.85404158
-1.4221659 3.2477295 0.84153128
-1.4318389 3.2449296 0.85462141
-1.4391823 3.2417355 0.86455727
-1.4447522 3.2382376 0.87209511
-1.4497601 3.2346575 0.87887287
-1.453451 3.2308426 0.88386774
-1.4571265 3.2270446 0.88884068
-1.4601543 3.2231326 0.89293909
-1.4624755 3.2190917 0.89607978
-1.4647896 3.2150607 0.89921212
-1.4670988 3.2110417 0.90233612
-1.4685985 3.2068596 0.90436482
-1.470072 3.2026806 0.90635967
-1.4715421 3.1985087 0.90834928
-1.4729793 3.1943367 0.91029406
-1.4738109 3.1900356 0.91141987
-1.4746425 3.1857395 0.91254473
-1.4754735 3.1814475 0.91366887
-1.4763036 3.1771598 0.91479206
-1.4766418 3.1727595 0.91525102
-1.4769154 3.1683457 0.91562033
-1.4771886 3.1639338 0.91599035
-1.4774622 3.1595225 0.91635966
-1.4773704 3.1550226 0.91623545
-1.4770879 3.1504736 0.9158535
-1.4768059 3.1459246 0.91547227
-1.4765234 3.1413727 0.91509008
-1.4758825 3.1367269 0.91422224
-1.474964 3.1320047 0.91298008
-1.4740444 3.1272779 0.91173601
-1.4731247 3.1225457 0.91049051
-1.4715307 3.1176267 0.90833306
-1.4697616 3.1126518 0.90593886
-1.4679873 3.1076658 0.9035387
-1.465485 3.1024678 0.90015221
-1.4623446 3.0970767 0.89590216
-1.459193 3.0916657 0.89163756
-1.4533976 3.0854816 0.88379574
-1.4461643 3.0788517 0.87400723
-1.4256859 3.0683239 0.84629416
-1.417694 3.2474515 0.84305406
-1.4268725 3.2445507 0.85543442
-1.4341607 3.2413385 0.86526489
-1.4397547 3.2378376 0.87281132
-1.4446075 3.2342205 0.87935686
-1.4483149 3.2304015 0.88435698
-1.4520066 3.2265985 0.88933682
-1.4549416 3.2226615 0.89329553
-1.4573035 3.2186205 0.89648104
-1.4596391 3.2145877 0.8996315
-1.4618691 3.2105446 0.90263963
-1.4633516 3.2063527 0.90463948
-1.4648314 3.2021675 0.90663576
-1.466309 3.1979907 0.9086287
-1.4676619 3.1937935 0.91045308
-1.4684987 3.1894865 0.91158104
-1.4693335 3.1851847 0.91270828
-1.4701684 3.1808856 0.91383338
-1.4709854 3.1765885 0.91493535
-1.4712594 3.1721666 0.91530585
-1.4715344 3.1677456 0.91567659
-1.4718087 3.1633267 0.91604638
-1.4720832 3.1589096 0.91641617
-1.4719046 3.1543818 0.91617656
-1.4716215 3.1498256 0.9157939
-1.471338 3.1452687 0.91541123
-1.471054 3.1407108 0.91502929
-1.4703071 3.1360307 0.91402149
-1.4693847 3.1313007 0.91277623
-1.4684609 3.1265657 0.91153097
-1.4675355 3.1218247 0.91028309
-1.4657931 3.1168597 0.90793204
-1.4640144 3.1118746 0.9055326
-1.4622312 3.1068797 0.90312767
-1.4594829 3.1016068 0.89942074
-1.456357 3.0962129 0.89520407
-1.4529246 3.0907159 0.89057469
-1.4470288 3.0844979 0.88262248
-1.4387693 3.0775657 0.8714819
-1.4126773 3.2470727 0.84385848
-1.4218935 3.2441716 0.85624838
-1.428991 3.2409146 0.86579084
-1.4347453 3.2374365 0.87352777
-1.4394422 3.2337816 0.87984228
-1.4431655 3.2299585 0.88484788
-1.4468726 3.2261515 0.88983274
-1.4496896 3.2221837 0.89361954
-1.4520619 3.2181375 0.89680839
-1.4544269 3.2141037 0.89998865
-1.4565884 3.2100387 0.90289354
-1.4580895 3.2058437 0.90491295
-1.459577 3.2016535 0.90691304
-1.4610617 3.1974716 0.90890837
-1.4623294 3.1932487 0.91061306
-1.4631703 3.1889358 0.91174269
-1.464009 3.1846275 0.91287088
-1.4648474 3.1803236 0.9139986
-1.465585 3.1759996 0.91498947
-1.465861 3.1715717 0.91536069
-1.4661376 3.1671448 0.91573286
-1.4664129 3.1627188 0.91610336
-1.4666879 3.1582947 0.91647387
-1.4664224 3.1537387 0.91611648
-1.4661376 3.1491756 0.91573405
-1.4658538 3.1446118 0.91535091
-1.4655681 3.1400456 0.91496754
-1.4647146 3.1353316 0.91381931
-1.4637871 3.1305938 0.91257238
-1.4628587 3.1258507 0.91132474
-1.4618196 3.1210728 0.90992808
-1.4600353 3.1160898 0.90752888
-1.4582471 3.1110957 0.9051249
-1.4564725 3.1060948 0.90273905
-1.4535379 3.1007648 0.89879394
-1.4504175 3.0953658 0.89459848
-1.446565 3.0897439 0.88941813
-1.440634 3.0835087 0.88144565
-1.4317743 3.0763998 0.86953378
-1.4075632 3.2466776 0.84455013
-1.4169027 3.2437906 0.8570652
-1.4238071 3.2404895 0.86631823
-1.4295998 3.2370105 0.8740809
-1.434261 3.2333417 0.88032603
-1.4380031 3.2295146 0.88534069
-1.441726 3.2257035 0.89032984
-1.4444221 3.2217035 0.89394331
-1.4468055 3.2176535 0.89713764
-1.4491816 3.2136147 0.90032196
-1.4512616 3.2095256 0.90310907
-1.4527694 3.2053246 0.90513015
-1.4542761 3.2011316 0.90714908
-1.455779 3.1969466 0.90916324
-1.4569762 3.1927006 0.91076708
-1.4578238 3.1883826 0.91190243
-1.4586687 3.1840687 0.91303444
-1.4595107 3.1797585 0.91416383
-1.4601684 3.1754098 0.91504455
-1.4604459 3.1709747 0.91541719
-1.4607232 3.1665406 0.91578841
-1.4610004 3.1621087 0.91615939
-1.4612097 3.1576617 0.91644073
-1.4609232 3.1530938 0.91605687
-1.460638 3.1485238 0.91567373
-1.4603509 3.1439517 0.91528916
-1.460034 3.1393716 0.91486549
-1.4591037 3.1346307 0.91361761
-1.4581711 3.1298847 0.91236901
-1.4572436 3.1251347 0.91112471
-1.4560716 3.1203146 0.90955496
-1.4542961 3.1153266 0.90717483
-1.4525166 3.1103287 0.9047904
-1.4507195 3.1053157 0.90238285
-1.4475949 3.0999258 0.89819431
-1.4444566 3.0945158 0.89399076
-1.4401789 3.0887678 0.88825631
-1.4343333 3.0825508 0.88042474
-1.4247832 3.0752387 0.86762547
-1.4023275 3.2462616 0.84509754
-1.4119006 3.2434087 0.85788345
-1.4186109 3.2400637 0.8668468
-1.4244289 3.2365816 0.87461758
-1.4289734 3.2328815 0.88068914
-1.432796 3.2290635 0.88579488
-1.4365655 3.2252545 0.8908298
-1.4391413 3.2212226 0.89426899
-1.4415348 3.2171676 0.89746666
-1.4439218 3.2131236 0.90065503
-1.44592 3.2090106 0.90332389
-1.447435 3.2048047 0.9053483
-1.4489484 3.2006056 0.9073689
-1.4504578 3.1964147 0.90938592
-1.4515871 3.1921468 0.91089487
-1.4524391 3.1878226 0.91203284
-1.4532908 3.1835036 0.91316915
-1.4541405 3.1791878 0.91430497
-1.4547312 3.1748166 0.91509295
-1.4550095 3.1703746 0.91546607
-1.4552883 3.1659346 0.91583872
-1.4555681 3.1614966 0.91621161
-1.4556983 3.1570227 0.91638613
-1.455412 3.1524477 0.91600251
-1.4551241 3.1478708 0.91561866
-1.4548364 3.1432917 0.91523504
-1.454429 3.1386807 0.91468954
-1.4534984 3.1339338 0.91344643
-1.452566 3.1291807 0.91220188
-1.4516329 3.1244228 0.91095543
-1.4503405 3.1195636 0.9092288
-1.4485554 3.1145668 0.90684462
-1.4467663 3.1095586 0.90445566
-1.4447706 3.1044848 0.90179038
-1.4416295 3.0990837 0.89759326
-1.4384757 3.0936627 0.8933804
-1.4338968 3.0878239 0.88726425
-1.4280897 3.0816116 0.87950802
-1.4177948 3.0740819 0.86575747
-1.3970788 3.2458446 0.84564757
-1.4067644 3.2430036 0.85854197
-1.4134004 3.2396355 0.867378
-1.4192436 3.2361505 0.8751564
-1.4236724 3.2324207 0.88105297
-1.427512 3.2285986 0.8861649
-1.4313344 3.2247927 0.89125347
-1.4338346 3.2207386 0.89458227
-1.4362488 3.2166805 0.89779711
-1.438646 3.2126317 0.90098882
-1.440562 3.2084937 0.90353918
-1.4420846 3.2042816 0.90556741
-1.4436045 3.2000775 0.90759063
-1.445122 3.1958816 0.90961075
-1.4461832 3.1915917 0.91102338
-1.4470383 3.1872616 0.91216254
-1.4478937 3.1829357 0.91330051
-1.4487476 3.1786137 0.91443753
-1.4492737 3.1742206 0.91513753
-1.4495543 3.1697726 0.91551137
-1.4498339 3.1653256 0.91588426
-1.4501143 3.1608806 0.91625643
-1.4501752 3.1563838 0.91633773
-1.4498867 3.1518006 0.9159534
-1.4495975 3.1472168 0.91556978
-1.4493092 3.1426308 0.91518569
-1.4488143 3.1379907 0.91452622
-1.4478792 3.1332357 0.91328192
-1.4469433 3.1284747 0.91203451
-1.4460049 3.1237087 0.91078615
-1.44459 3.1188107 0.90890193
-1.4427955 3.1138039 0.90651369
-1.4409972 3.1087866 0.90411997
-1.4388016 3.1036518 0.90119529
-1.4356767 3.0982487 0.89703536
-1.4325618 3.0928319 0.89288783
-1.4276601 3.0868957 0.88636255
-1.4218212 3.0806689 0.87858844
-1.4111669 3.0730319 0.86440325
-1.3918164 3.2454257 0.8461988
-1.4015443 3.2425835 0.85910678
-1.4081268 3.2391977 0.86784267
-1.4140444 3.2357197 0.87569571
-1.4183559 3.2319586 0.88141799
-1.4222128 3.2281315 0.88653541
-1.426013 3.2243147 0.89157915
-1.4284623 3.2202425 0.89482856
-1.4309043 3.2161827 0.89806962
-1.4333391 3.2121346 0.90130067
-1.4351894 3.2079756 0.90375638
-1.4367192 3.2037587 0.90578699
-1.4382464 3.1995487 0.90781236
-1.4397706 3.1953466 0.90983558
-1.4407624 3.1910348 0.91115212
-1.4416223 3.1866987 0.91229272
-1.4424816 3.1823666 0.9134326
-1.4433393 3.1780386 0.91457129
-1.4437994 3.1736236 0.91518211
-1.4440813 3.1691687 0.91555572
-1.4443625 3.1647148 0.91592979
-1.4446443 3.1602638 0.9163034
-1.4446347 3.1557417 0.91629004
-1.4443438 3.1511517 0.91590524
-1.4440546 3.1465607 0.91552019
-1.443764 3.1419678 0.91513562
-1.4431827 3.1372988 0.91436291
-1.4422421 3.1325347 0.91311574
-1.4413011 3.1277657 0.91186666
-1.4403591 3.1229918 0.91061664
-1.4388191 3.1180549 0.90857363
-1.4370193 3.1130397 0.90618515
-1.4352309 3.1080179 0.90381098
-1.4328901 3.1028366 0.90070462
-1.4297702 3.0974288 0.89656472
-1.4266384 3.0920007 0.89240789
-1.3865411 3.2450066 0.84675121
-1.3963085 3.2421627 0.85967255
-1.4027622 3.2387445 0.86820793
-1.4087937 3.2352786 0.87618637
-1.4130253 3.2314956 0.88178301
-1.4168987 3.2276645 0.88690758
-1.4206133 3.2238216 0.89182067
-1.4230742 3.2197456 0.89507508
-1.4255273 3.2156806 0.89831996
-1.4279741 3.2116265 0.90155578
-1.4297631 3.2074475 0.90392232
-1.4313101 3.2032275 0.90596962
-1.4328543 3.1990137 0.90801239
-1.4343972 3.1948087 0.9100523
-1.435325 3.1904757 0.91127992
-1.4361897 3.1861336 0.91242313
-1.4370532 3.1817956 0.9135654
-1.4379146 3.1774616 0.91470623
-1.4383085 3.1730237 0.91522598
-1.438592 3.1685627 0.91560078
-1.4388752 3.1641028 0.91597557
-1.439158 3.1596437 0.91634989
-1.4390762 3.1550987 0.91624188
-1.4387856 3.1505008 0.91585708
-1.4384933 3.1459017 0.91547084
-1.438202 3.1413016 0.91508532
-1.4375317 3.1366038 0.91419935
-1.4365884 3.1318328 0.91295099
-1.4356486 3.1270568 0.91170788
-1.4347068 3.1222758 0.91046238
-1.433071 3.1173067 0.90829849
-1.431277 3.1122868 0.90592504
-1.4294789 3.1072557 0.90354824
-1.4269786 3.1020248 0.90023994
-1.4238424 3.0966058 0.8960917
-1.4206949 3.091167 0.89192867
-1.3810989 3.2445576 0.84710455
-1.3910608 3.2417407 0.86024046
-1.3973818 3.2382896 0.86857414
-1.4034411 3.2348206 0.87656164
-1.4076326 3.2310216 0.88208771
-1.4115707 3.2271955 0.88727975
-1.4151987 3.2233286 0.8920629
-1.4176701 3.2192466 0.89532208
-1.4201349 3.2151766 0.89857173
-1.4225936 3.2111177 0.90181208
-1.4243194 3.2069187 0.90408778
-1.4258735 3.2026916 0.90613747
-1.4274251 3.1984737 0.90818357
-1.4289737 3.1942616 0.91022563
-1.42985 3.1899107 0.91138005
-1.4307213 3.1855626 0.91252875
-1.431591 3.1812186 0.9136765
-1.4324601 3.1768796 0.91482186
-1.432797 3.1724217 0.91526532
-1.4330816 3.1679537 0.91564131
-1.4333665 3.1634867 0.9160161
-1.4336507 3.1590216 0.91639137
-1.4335053 3.1544538 0.91619921
-1.4332124 3.1498497 0.91581368
-1.4329205 3.1452436 0.91542912
-1.4326292 3.1406357 0.91504359
-1.4318879 3.1359138 0.91406775
-1.4309443 3.1311347 0.91282296
-1.4299998 3.1263518 0.9115777
-1.4290532 3.1215627 0.9103303
-1.4273183 3.1165607 0.90804315
-1.4255155 3.1115317 0.90566611
-1.4237093 3.1064918 0.90328383
-1.4210471 3.1012096 0.89977455
-1.4178947 3.0957799 0.89561749
-1.4147775 3.0903428 0.89150882
-1.409084 3.0841699 0.88400149
-1.375615 3.2441037 0.84742451
-1.3857921 3.2413166 0.86079931
-1.3919882 3.2378325 0.86894107
-1.3980742 3.2343616 0.87693906
-1.4021862 3.2305396 0.88234377
-1.4061543 3.2267106 0.88755846
-1.4097555 3.2228305 0.89229012
-1.4122512 3.2187457 0.8955698
-1.4147272 3.2146707 0.8988235
-1.4171956 3.2106075 0.90206838
-1.418859 3.2063875 0.90425396
-1.4204212 3.2021556 0.90630627
-1.4219797 3.1979308 0.90835547
-1.4234819 3.1937017 0.91032863
-1.4243577 3.1893437 0.91147995
-1.4252335 3.1849887 0.91262984
-1.4261078 3.1806397 0.91377997
-1.4269786 3.1762938 0.91492462
-1.427265 3.1718168 0.91530061
-1.4275513 3.1673427 0.91567659
-1.4278375 3.1628687 0.91605258
-1.428123 3.1583967 0.91642785
-1.4279203 3.1538088 0.91616249
-1.4276274 3.1491966 0.91577697
-1.4273338 3.1445837 0.91539097
-1.4270402 3.1399689 0.91500497
-1.4262303 3.1352217 0.91394019
-1.4252822 3.1304357 0.91269445
-1.4243319 3.1256437 0.91144657
-1.4233544 3.1208398 0.9101615
-1.4215463 3.1158118 0.90778589
-1.4197347 3.1107738 0.90540528
-1.4179196 3.1057248 0.90301943
-1.4151279 3.1004019 0.8993504
-1.412016 3.0949757 0.89526153
-1.4086853 3.0894737 0.89088321
-1.4029469 3.0832818 0.8833425
-1.370116 3.2436476 0.84774613
-1.3803045 3.2408526 0.86109114
-1.3865784 3.2373755 0.8693099
-1.392692 3.2339005 0.87731695
-1.3967236 3.2300556 0.88259935
-1.4007103 3.2262225 0.88782048
-1.404253 3.2223227 0.8924613
-1.4067711 3.2182357 0.89575958
-1.409282 3.2141597 0.89904785
-1.4117839 3.2100956 0.90232611
-1.4133834 3.2058547 0.9044199
-1.4149522 3.2016168 0.90647531
-1.4165184 3.1973867 0.90852714
-1.4179688 3.1931398 0.91042686
-1.4188489 3.1887746 0.91157913
-1.4197285 3.1844137 0.91273236
-1.4206071 3.1800578 0.91388369
-1.421428 3.1756938 0.91495872
-1.4217166 3.1712108 0.91533518
-1.4220035 3.1667287 0.91571188
-1.4222908 3.1622486 0.91608858
-1.4225786 3.1577697 0.91646457
-1.4223197 3.1531608 0.91612577
-1.4220237 3.1485417 0.91573906
-1.4217293 3.1439207 0.91535258
-1.4214337 3.1392989 0.91496611
-1.4205542 3.1345277 0.91381431
-1.4196008 3.1297328 0.91256523
-1.4186461 3.1249328 0.9113152
-1.4175735 3.1200967 0.90990853
-1.4157617 3.1150618 0.90753579
-1.4139602 3.1100197 0.90517735
-1.4121557 3.1049666 0.9028132
-1.4092547 3.0996089 0.89901328
-1.4061271 3.0941718 0.8949151
-1.4025564 3.0885978 0.890239
-1.3968172 3.0823998 0.88272095
-1.3897432 3.0757968 0.87345505
-1.3465334 3.2446306 0.82447767
-1.3646021 3.2431905 0.848068
-1.374738 3.2403765 0.86130142
-1.3810457 3.2368965 0.86953783
-1.3872236 3.2334256 0.87760282
-1.3912463 3.2295706 0.88285565
-1.3952508 3.2257326 0.8880837
-1.398735 3.2218137 0.89263391
-1.4012655 3.2177207 0.89593601
-1.4037868 3.2136397 0.89922905
-1.4062765 3.2095656 0.90247989
-1.4078654 3.2053156 0.90455341
-1.4094498 3.2010736 0.90662313
-1.4110326 3.1968398 0.90868855
-1.4124397 3.1925757 0.91052604
-1.4133242 3.1882038 0.9116807
-1.4142073 3.1838377 0.91283417
-1.4150903 3.1794746 0.91398644
-1.4158614 3.1750917 0.91499376
-1.4161503 3.1706018 0.9153707
-1.4164397 3.1661139 0.91574788
-1.4167283 3.1616268 0.91612434
-1.4169967 3.1571367 0.91647506
-1.4167004 3.1525118 0.91608787
-1.4164031 3.1478848 0.91570139
-1.4161066 3.1432567 0.91531444
-1.41581 3.1386268 0.91492701
-1.4148636 3.1338317 0.91369057
-1.4139109 3.1290307 0.91244721
-1.4129577 3.1242247 0.91120243
-1.4118145 3.1193638 0.90971041
-1.4100082 3.1143227 0.90735149
-1.4081986 3.1092718 0.90498853
-1.4063852 3.1042109 0.90262103
-1.4033611 3.0988128 0.89867353
-1.4002182 3.0933659 0.89456916
-1.396435 3.0877259 0.88962984
-1.3908223 3.0815578 0.88230133
-1.3834069 3.0748549 0.87261963
-1.3408614 3.2441585 0.82469201
-1.3589988 3.2427187 0.84829569
-1.3691547 3.2398987 0.8615129
-1.3754917 3.2364147 0.86975956
-1.3816446 3.2329307 0.87776589
-1.3857365 3.2290807 0.88309216
-1.3897756 3.2252417 0.8883481
-1.3932017 3.2213037 0.89280629
-1.3957434 3.2172046 0.89611387
-1.3982776 3.2131186 0.89941144
-1.4007254 3.2090278 0.90259719
-1.4023204 3.2047727 0.90467453
-1.4039136 3.2005248 0.90674758
-1.4055035 3.1962848 0.90881538
-1.4068732 3.1920056 0.91059899
-1.4077649 3.1876278 0.91175842
-1.4086546 3.1832557 0.91291618
-1.4095438 3.1788876 0.91407347
-1.4102736 3.1744876 0.91502404
-1.4105644 3.1699908 0.91540241
-1.4108548 3.1654956 0.91577935
-1.4111449 3.1610017 0.91615725
-1.411366 3.1564927 0.91644454
-1.4110689 3.1518607 0.9160583
-1.4107716 3.1472278 0.91567183
-1.4104745 3.1425927 0.91528535
-1.410135 3.1379447 0.9148438
-1.4091802 3.1331408 0.9136014
-1.4082236 3.1283317 0.91235638
-1.4072659 3.1235178 0.91110992
-1.4060512 3.1186318 0.90952945
-1.4042362 3.1135817 0.9071672
-1.4024172 3.1085217 0.90480018
-1.4005948 3.1034508 0.90242767
-1.3974485 3.0980139 0.89833355
-1.3943342 3.0925689 0.8942802
-1.3904476 3.0868948 0.8892231
-1.3848054 3.0807128 0.88188028
-1.3771189 3.0739288 0.87187719
-1.363308 3.0653729 0.85390377
-1.3350782 3.2436686 0.82478547
-1.3532971 3.2422307 0.84841824
-1.3635551 3.2394185 0.8617239
-1.3699213 3.2359326 0.86998224
-1.37604 3.2324326 0.87791896
-1.380152 3.2285776 0.88325191
-1.3842444 3.2247417 0.88856196
-1.3876512 3.2207916 0.89298058
-1.3902038 3.2166877 0.89629173
-1.39275 3.2125957 0.89959407
-1.3951575 3.2084897 0.90271616
-1.3967603 3.2042277 0.90479612
-1.398361 3.1999736 0.90687132
-1.3999568 3.1957276 0.9089427
-1.4012899 3.1914337 0.91067219
-1.4021859 3.1870496 0.911834
-1.4030795 3.1826706 0.91299391
-1.4039738 3.1782966 0.91415286
-1.4046646 3.1738808 0.91504955
-1.4049569 3.1693778 0.91542816
-1.4052484 3.1648748 0.91580725
-1.4055407 3.1603746 0.91618562
-1.4057214 3.1558487 0.91641951
-1.4054229 3.1512098 0.91603327
-1.4051243 3.1465688 0.9156456
-1.4048265 3.1419258 0.91525841
-1.4044394 3.1372597 0.9147563
-1.4034787 3.1324477 0.91351032
-1.4025171 3.1276307 0.91226363
-1.4015557 3.1228077 0.91101527
-1.4002695 3.1178968 0.90934753
-1.3984458 3.1128387 0.90698171
-1.3966172 3.1077688 0.90461063
-1.3947067 3.1026678 0.90213299
-1.3916018 3.0972357 0.89810467
-1.3884853 3.0917838 0.89406157
-1.3844395 3.0860608 0.88881445
-1.3787675 3.079865 0.88145733
-1.3710885 3.0730789 0.87149549
-1.3291061 3.2431457 0.82465649
-1.3475788 3.2417407 0.84854031
-1.3578689 3.2389245 0.86184525
-1.3643355 3.2354476 0.87020612
-1.3704205 3.2319326 0.87807274
-1.3745508 3.2280736 0.88341331
-1.3786623 3.2242327 0.88873005
-1.3820366 3.2202687 0.89309263
-1.3846216 3.2161627 0.89643407
-1.3871979 3.2120697 0.89976549
-1.3895719 3.2079487 0.90283537
-1.3911828 3.2036817 0.904917
-1.3927907 3.1994216 0.90699577
-1.3943946 3.1951697 0.90907025
-1.3956895 3.1908598 0.91074562
-1.3965898 3.1864698 0.91190815
-1.3974886 3.1820846 0.91307116
-1.398386 3.1777036 0.9142313
-1.3990397 3.1732717 0.91507626
-1.3993325 3.1687617 0.9154551
-1.3996255 3.1642528 0.91583395
-1.3999186 3.1597447 0.91621304
-1.4000599 3.1552026 0.91639447
-1.39976 3.1505558 0.91600704
-1.3994598 3.1459079 0.91561937
-1.3991605 3.1412578 0.91523242
-1.3987243 3.1365728 0.91466808
-1.3977582 3.1317527 0.9134202
-1.3967929 3.1269269 0.9121716
-1.3958263 3.1220968 0.91092157
-1.3944759 3.1171618 0.90917516
-1.3926635 3.1120996 0.90683317
-1.3908491 3.1070268 0.9044857
-1.3888689 3.1019008 0.90192604
-1.3857484 3.0964577 0.89789128
-1.3826168 3.0909958 0.89384174
-1.3784108 3.0852227 0.88840437
-1.3728604 3.0790558 0.88122869
-1.3650355 3.0722249 0.87111235
-1.3512529 3.063674 0.85329175
-1.3231142 3.2426217 0.82452774
-1.341843 3.2412496 0.84866285
-1.3521391 3.2384245 0.86193275
-1.3586688 3.2349505 0.87034774
-1.3647823 3.2314317 0.87822676
-1.3689328 3.2275686 0.88357496
-1.373064 3.2237227 0.88889885
-1.376405 3.2197437 0.89320493
-1.3790015 3.2156327 0.89655089
-1.3815906 3.2115347 0.89988756
-1.3839457 3.2074018 0.90292239
-1.3855703 3.2031298 0.9050169
-1.387193 3.1988657 0.90710807
-1.3888123 3.1946087 0.90919518
-1.3900731 3.1902838 0.91081977
-1.3909769 3.1858878 0.91198421
-1.3918802 3.1814957 0.91314793
-1.3927817 3.1771088 0.91431046
-1.3933963 3.1726618 0.91510296
-1.3936913 3.1681437 0.91548252
-1.3939857 3.1636276 0.91586113
-1.3942802 3.1591136 0.91624141
-1.3943801 3.1545548 0.91636992
-1.3940791 3.1499009 0.91598153
-1.393777 3.1452448 0.91559362
-1.3934762 3.1405878 0.91520524
-1.3929951 3.1358838 0.91458488
-1.3920327 3.1310577 0.91334534
-1.3910681 3.1262257 0.9121027
-1.3901042 3.1213889 0.91085887
-1.3887129 3.1164367 0.9090662
-1.3868921 3.1113658 0.90671992
-1.385067 3.1062849 0.90436888
-1.3830121 3.1011319 0.90172005
-1.3798758 3.0956788 0.89767742
-1.3767288 3.0902059 0.89362144
-1.3725071 3.0844228 0.88818121
-1.3669623 3.0782528 0.88103652
-1.3589637 3.0713687 0.87072873
-1.3454515 3.062892 0.85331511
-1.3171027 3.2420967 0.82439709
-1.3360574 3.2407517 0.84874535
-1.3463924 3.2379227 0.86202049
-1.352953 3.2344456 0.87044811
-1.3590875 3.2309217 0.87832904
-1.3632982 3.2270617 0.88373685
-1.3674481 3.2232118 0.88906884
-1.3707553 3.2192178 0.89331651
-1.3733647 3.2151008 0.89666796
-1.3759651 3.2109976 0.90000916
-1.3782963 3.2068517 0.90300298
-1.3799291 3.2025738 0.90510011
-1.3815589 3.1983037 0.90719342
-1.3831856 3.1940408 0.90928435
-1.3844218 3.1897037 0.91087246
-1.3853317 3.1853008 0.91204071
-1.3862411 3.1809037 0.91320848
-1.3871495 3.1765099 0.91437531
-1.3877323 3.1720479 0.91512418
-1.3880291 3.1675239 0.91550517
-1.3883251 3.1630008 0.91588521
-1.3886199 3.1584797 0.91626477
-1.3886886 3.1539068 0.91635227
-1.3883872 3.1492448 0.91596484
-1.3880851 3.1445818 0.91557813
-1.3877829 3.1399169 0.91518998
-1.3872734 3.1351998 0.91453552
-1.3863065 3.1303649 0.91329193
-1.3853382 3.1255257 0.91204858
-1.3843682 3.1206808 0.91080284
-1.3829312 3.1157098 0.90895748
-1.3811014 3.1106298 0.9066062
-1.3792679 3.1055388 0.90425158
-1.3771358 3.1003599 0.90151238
-1.374022 3.0949068 0.89751315
-1.3709192 3.0894399 0.89352727
-1.3666168 3.0836289 0.88800073
-1.3610449 3.077446 0.88084364
-1.3531727 3.0705938 0.87073183
-1.3396485 3.0621128 0.85335803
-1.3301615 3.2402356 0.84870887
-1.3406274 3.2374196 0.86210942
-1.3472195 3.2339387 0.8705492
-1.3533528 3.2304056 0.87840199
-1.3575838 3.2265406 0.8838203
-1.3617955 3.2226946 0.88921213
-1.3650889 3.2186897 0.89342976
-1.36771 3.2145677 0.89678574
-1.3703239 3.2104588 0.90013146
-1.372629 3.2062998 0.90308285
-1.3742692 3.2020156 0.90518355
-1.3759073 3.1977396 0.90728116
-1.3775419 3.1934717 0.90937328
-1.3787529 3.1891208 0.91092491
-1.3796675 3.1847117 0.91209555
-1.3805809 3.1803076 0.91326427
-1.3814929 3.1759079 0.914433
-1.3820487 3.1714327 0.91514468
-1.3823459 3.1669006 0.91552448
-1.3826424 3.1623716 0.91590524
-1.3829405 3.1578426 0.91628599
-1.382983 3.1532569 0.91633964
-1.3826792 3.1485877 0.91595197
-1.3823762 3.1439168 0.91556311
-1.3820727 3.1392448 0.91517496
-1.3815336 3.1345129 0.91448545
-1.3805616 3.1296709 0.91324043
-1.379589 3.1248229 0.91199446
-1.3786147 3.1199698 0.91074753
-1.377131 3.1149807 0.90884733
-1.3752918 3.1098919 0.90649343
-1.3734676 3.1047969 0.90415716
-1.3713155 3.0996058 0.90140104
-1.3682086 3.0941479 0.89742351
-1.365091 3.0886707 0.89343166
-1.3607075 3.0828328 0.88782001
-1.3551881 3.0766587 0.8807528
-1.3473847 3.0698218 0.87076139
-1.3344872 3.0615158 0.85424757
-1.3242466 3.2397165 0.84867144
-1.3348036 3.2369077 0.86214399
-1.3414674 3.2334306 0.87064934
-1.3476007 3.2298877 0.8784759
-1.3518522 3.2260187 0.88390231
-1.356083 3.2221677 0.88930225
-1.3593724 3.2181537 0.89349961
-1.3620214 3.2140298 0.89688158
-1.3646636 3.2099178 0.90025258
-1.3669441 3.2057467 0.90316343
-1.3685924 3.2014556 0.90526724
-1.3702385 3.1971736 0.90736771
-1.3718807 3.1928997 0.90946341
-1.3730662 3.1885357 0.91097665
-1.3739846 3.1841207 0.91214919
-1.3749032 3.1797097 0.91332078
-1.3758197 3.1753037 0.9144907
-1.3763471 3.1708148 0.91516423
-1.3766465 3.1662767 0.91554475
-1.3769454 3.1617398 0.91592598
-1.3772434 3.1572046 0.91630673
-1.3772587 3.1526039 0.91632605
-1.3769535 3.1479278 0.91593814
-1.3766496 3.1432498 0.9155488
-1.3763444 3.1385698 0.91515946
-1.3757757 3.1338239 0.91443419
-1.3747993 3.1289737 0.91318798
-1.3738211 3.1241179 0.91194057
-1.3728472 3.1192579 0.9106977
-1.3713419 3.1142559 0.90877533
-1.3695166 3.1091638 0.90644622
-1.367687 3.1040618 0.9041121
-1.3654994 3.0988548 0.9013195
-1.3623769 3.0933869 0.89733529
-1.3592445 3.0878999 0.8933363
-1.3548491 3.0820527 0.88772774
-1.3494046 3.0758948 0.8807795
-1.3415784 3.0690479 0.87079096
-1.3293133 3.0609179 0.85513806
-1.3183124 3.2391965 0.848634
-1.3289263 3.2363877 0.86213517
-1.3356624 3.2329137 0.8707037
-1.34183 3.2293687 0.87854981
-1.3461021 3.2254946 0.88398433
-1.3503537 3.2216387 0.88939238
-1.3536316 3.2176147 0.89356184
-1.3562937 3.2134848 0.89694834
-1.3589467 3.2093678 0.90032482
-1.3612239 3.2051878 0.90322089
-1.3628861 3.2008927 0.90533495
-1.3645449 3.1966047 0.90744495
-1.3662013 3.1923256 0.90955138
-1.367362 3.1879497 0.91102934
-1.3682852 3.1835277 0.91220331
-1.3692075 3.1791108 0.91337681
-1.3701285 3.1746979 0.91454768
-1.3706276 3.1701958 0.91518331
-1.3709285 3.1656497 0.91556501
-1.3712283 3.1611068 0.91594696
-1.3715285 3.1565638 0.91632819
-1.3715158 3.1519499 0.91631222
-1.37121 3.1472659 0.91592383
-1.3709049 3.1425807 0.91553593
-1.3706005 3.1378939 0.9151473
-1.3700134 3.1331367 0.91440177
-1.3690389 3.1282799 0.91316223
-1.3680637 3.1234179 0.91192102
-1.3670871 3.1185498 0.91067982
-1.3655615 3.1135368 0.9087379
-1.3637278 3.1084359 0.90640569
-1.3618896 3.1033249 0.90406704
-1.3596647 3.0981007 0.90123653
-1.3565266 3.0926228 0.89724588
-1.3534309 3.0871398 0.89330745
-1.349075 3.0812988 0.88776612
-1.3436036 3.0751288 0.8808074
-1.3359089 3.0683138 0.87101793
-1.3241268 3.0603178 0.85603118
-1.3123451 3.2386727 0.84857702
-1.3230307 3.2358656 0.86212659
-1.3297992 3.2323887 0.87070918
-1.3360161 3.2288437 0.8785913
-1.3403345 3.2249687 0.88406754
-1.3446057 3.2211087 0.88948298
-1.3478719 3.2170737 0.89362431
-1.3505471 3.2129388 0.89701533
-1.3532131 3.2088156 0.90039682
-1.3554794 3.2046256 0.90327001
-1.3571494 3.2003238 0.90538669
-1.3588159 3.1960306 0.90750027
-1.3604789 3.1917458 0.90960979
-1.361627 3.1873586 0.91106415
-1.362556 3.1829307 0.91224194
-1.3634832 3.1785069 0.91341782
-1.3644093 3.1740878 0.91459322
-1.3648865 3.1695728 0.91519856
-1.3651884 3.1650207 0.91558123
-1.3654902 3.1604698 0.91596365
-1.3657911 3.1559207 0.91634536
-1.3657639 3.1512957 0.91630936
-1.3654575 3.1466048 0.91592193
-1.3651516 3.141912 0.9155333
-1.3648443 3.1372178 0.91514492
-1.3642485 3.1324508 0.91438913
-1.3632698 3.1275859 0.91314745
-1.3622903 3.122716 0.91190505
-1.3613089 3.1178398 0.91066146
-1.3597627 3.1128149 0.90870094
-1.3579192 3.1077049 0.9063642
-1.3560725 3.1025848 0.90402222
-1.3538361 3.0973518 0.90118623
-1.3507458 3.0918808 0.8972683
-1.3476441 3.086391 0.89333534
-1.3432817 3.0805418 0.88780427
-1.3377891 3.0743608 0.8808403
-1.3303633 3.0676179 0.8714242
-1.3190465 3.0597498 0.85707474
-1.3062844 3.2381337 0.84842706
-1.3171157 3.2353415 0.86211729
-1.3239174 3.2318616 0.87071347
-1.3301604 3.2283115 0.87860346
-1.3345068 3.2244337 0.88409615
-1.3388311 3.2205746 0.88956165
-1.3420953 3.2165318 0.89368677
-1.3447832 3.2123907 0.89708447
-1.3474627 3.2082627 0.90046978
-1.3497167 3.2040617 0.90331936
-1.3513942 3.1997547 0.90543962
-1.3530692 3.1954546 0.90755534
-1.3547409 3.1911638 0.90966821
-1.3558729 3.1867657 0.91109967
-1.3568056 3.1823306 0.91227794
-1.3577385 3.1779008 0.9134562
-1.3586689 3.1734748 0.91463375
-1.3591273 3.1689487 0.91521287
-1.3594304 3.1643887 0.91559529
-1.359733 3.1598318 0.91597819
-1.3600359 3.1552749 0.91636062
-1.3599945 3.1506398 0.91630888
-1.3596866 3.1459408 0.91591978
-1.3593791 3.1412408 0.9155302
-1.359071 3.136539 0.91514087
-1.3584661 3.131763 0.91437626
-1.3574828 3.1268897 0.91313362
-1.3564973 3.1220119 0.91188884
-1.3555119 3.1171279 0.91064262
-1.3539451 3.1120908 0.90866232
-1.3521132 3.1069779 0.90634847
-1.3502816 3.1018548 0.90403366
-1.3480606 3.0966198 0.90122604
-1.3449545 3.0911379 0.89730144
-1.3418397 3.085638 0.89336395
-1.337471 3.079783 0.88784218
-1.3321185 3.0736358 0.881078
-1.324803 3.0669188 0.87183261
-1.3143789 3.0592978 0.85865784
-1.3002024 3.2375927 0.84827638
-1.3111582 3.2348118 0.86207628
-1.318017 3.2313328 0.87071776
-1.3242865 3.2277777 0.87861538
-1.3286524 3.2238958 0.8841157
-1.3329983 3.2200317 0.88958979
-1.3362777 3.2159827 0.89371991
-1.3389901 3.2118387 0.89713693
-1.3416934 3.2077067 0.9005425
-1.3439353 3.2034957 0.90336704
-1.3456221 3.1991827 0.90549159
-1.3473041 3.1948767 0.90761185
-1.3489839 3.1905797 0.90972757
-1.3501006 3.1861708 0.91113329
-1.3510381 3.1817298 0.91231537
-1.3519754 3.1772928 0.91349483
-1.3529103 3.1728609 0.91467357
-1.353349 3.1683218 0.91522551
-1.3536538 3.1637559 0.91560936
-1.3539584 3.1591907 0.91599298
-1.3542624 3.1546278 0.91637588
-1.3542067 3.1499817 0.91630697
-1.3538978 3.1452758 0.91591716
-1.3535891 3.1405678 0.91552782
-1.3532789 3.1358588 0.91513824
-1.3526653 3.1310728 0.91436481
-1.3516772 3.1261919 0.91312075
-1.3506964 3.1213078 0.91188383
-1.3497137 3.1164179 0.91064668
-1.3481627 3.1113777 0.90869284
-1.3463265 3.106257 0.90637922
-1.3444862 3.1011248 0.90406084
-1.3422678 3.0958848 0.90126562
-1.339147 3.090394 0.89733529
-1.3360221 3.0848849 0.89339876
-1.3317984 3.0790639 0.88807797
-1.3264313 3.0729079 0.88131738
-1.3192271 3.0662179 0.87224245
-1.3097037 3.058846 0.86024499
-1.2941027 3.2370496 0.84812498
-1.305153 3.2342746 0.86200047
-1.3120761 3.2307978 0.87069464
-1.3183938 3.2272427 0.87862635
-1.322782 3.2233558 0.88413596
-1.327148 3.2194877 0.88961911
-1.3304329 3.2154307 0.89374375
-1.333158 3.2112808 0.89716578
-1.3358753 3.2071438 0.90057659
-1.3381233 3.2029257 0.90340018
-1.3398211 3.1986067 0.90553212
-1.3415163 3.1942959 0.90765953
-1.3432074 3.1899939 0.9097836
-1.3443103 3.1855738 0.91116858
-1.3452522 3.1811256 0.91235161
-1.3461937 3.1766827 0.91353345
-1.3471339 3.1722438 0.9147141
-1.3475517 3.1676939 0.91523957
-1.3478587 3.1631198 0.91562366
-1.3481641 3.1585479 0.916008
-1.3484702 3.1539779 0.91639137
-1.3484018 3.1493218 0.9163065
-1.3480933 3.1446087 0.91591835
-1.3477844 3.1398938 0.9155302
-1.3474743 3.1351769 0.91514182
-1.3468683 3.1303868 0.9143815
-1.3458835 3.1254988 0.91314411
-1.344898 3.1206069 0.9119072
-1.3439107 3.1157088 0.91066766
-1.3423662 3.1106639 0.90872788
-1.3405201 3.1055338 0.90641022
-1.3386719 3.1003938 0.90408897
-1.3364551 3.0951478 0.90130591
-1.3333594 3.0896568 0.89741874
-1.3302774 3.0841539 0.89354801
-1.3261191 3.0783448 0.88832784
-1.3207269 3.0721779 0.88155675
-1.3138963 3.065587 0.87297916
-1.3046737 3.0582969 0.86140013
-1.2879726 3.2365036 0.84796286
-1.2991278 3.2337368 0.86192346
-1.3060856 3.2302556 0.87063241
-1.3124664 3.2267036 0.87861824
-1.3168908 3.2228136 0.88415575
-1.3212795 3.2189407 0.88964748
-1.324571 3.2148776 0.89376831
-1.3273081 3.2107217 0.89719415
-1.3300387 3.2065787 0.90061069
-1.3322864 3.2023528 0.90342522
-1.3339922 3.1980278 0.90556026
-1.3356956 3.1937108 0.90769172
-1.3373952 3.1894016 0.90981865
-1.3384912 3.1849728 0.91119003
-1.3394387 3.1805186 0.91237545
-1.3403848 3.1760688 0.91355968
-1.3413302 3.1716237 0.91474342
-1.3417352 3.1670628 0.9152503
-1.342042 3.1624818 0.91563416
-1.3423495 3.1579027 0.9160192
-1.3426566 3.1533248 0.91640329
-1.3425879 3.1486619 0.91631699
-1.3422771 3.1439409 0.91592813
-1.3419663 3.1392179 0.9155395
-1.3416555 3.1344938 0.91515064
-1.3410615 3.1296997 0.91440678
-1.3400716 3.1248038 0.91316891
-1.3390815 3.1199038 0.91192842
-1.3380899 3.1149979 0.91068769
-1.336551 3.1099479 0.90876174
-1.3346968 3.1048088 0.90644121
-1.3328524 3.0996628 0.90413237
-1.3306971 3.0944269 0.9014349
-1.3276116 3.088933 0.89757299
-1.3245142 3.0834198 0.89369726
-1.3204226 3.0776238 0.88857627
-1.3150892 3.0714688 0.88190126
-1.3085635 3.0649579 0.873734
-1.2993484 3.0576689 0.86220026
-1.2759531 3.046365 0.8329196
-1.2817847 3.2359486 0.84775186
-1.2930827 3.2331967 0.86184692
-1.3000751 3.2297118 0.87057042
-1.3065019 3.2261586 0.87858701
-1.3109541 3.2222657 0.88414145
-1.315385 3.2183917 0.8896687
-1.3186893 3.2143216 0.89379096
-1.3214403 3.2101607 0.89722347
-1.3241837 3.2060127 0.90064526
-1.3264322 3.2017777 0.90344977
-1.328146 3.1974468 0.90558743
-1.3298568 3.1931238 0.90772295
-1.3315649 3.1888077 0.90985322
-1.3326534 3.1843708 0.91121173
-1.3336046 3.1799088 0.91239882
-1.334556 3.1754527 0.91358495
-1.3355066 3.1710007 0.91477013
-1.3358977 3.1664288 0.91525888
-1.3362069 3.1618419 0.91564369
-1.3365153 3.1572547 0.91602921
-1.3368237 3.1526709 0.9164145
-1.3367552 3.1479998 0.91632819
-1.3364433 3.1432707 0.91593885
-1.3361304 3.1385407 0.91554976
-1.3358181 3.1338089 0.9151597
-1.3352363 3.1290097 0.91443396
-1.3342422 3.1241069 0.9131937
-1.3332468 3.1191988 0.91195107
-1.3322501 3.1142838 0.9107089
-1.3307378 3.1092348 0.90882111
-1.3289003 3.1040938 0.90652871
-1.3270583 3.0989418 0.90423107
-1.3249459 3.0937099 0.90159583
-1.3218458 3.0882068 0.8977282
-1.3187344 3.082685 0.89384747
-1.3147755 3.0769188 0.88890934
-1.3095133 3.0707779 0.88234401
-1.3032184 3.0643268 0.87449121
-1.2942164 3.0570948 0.8632617
-1.2783208 3.0478909 0.84343052
-1.2755766 3.2353916 0.84754133
-1.2870058 3.2326517 0.86175394
-1.2940454 3.2291667 0.87050676
-1.3005184 3.2256117 0.87855554
-1.3049929 3.2217138 0.88411927
-1.3094449 3.2178357 0.88965535
-1.3127733 3.2137618 0.89379525
-1.3155466 3.2095966 0.89724231
-1.3183103 3.2054436 0.90068007
-1.3205587 3.2012017 0.90347528
-1.3222812 3.1968637 0.90561652
-1.3240002 3.1925337 0.90775466
-1.3257165 3.1882129 0.90988803
-1.3267971 3.1837656 0.91123199
-1.3277538 3.1792977 0.91242242
-1.3287089 3.1748338 0.91361022
-1.3296643 3.1703758 0.91479707
-1.3300428 3.1657939 0.9152689
-1.3303527 3.1611989 0.91565394
-1.3306631 3.1566057 0.91603994
-1.3309731 3.1520138 0.91642547
-1.3309035 3.1473358 0.91633844
-1.3305906 3.1425989 0.91594911
-1.330276 3.1378617 0.91555858
-1.3299621 3.133122 0.91516876
-1.3293967 3.1283197 0.91446424
-1.3284054 3.1234107 0.91323304
-1.3274144 3.1184959 0.91200066
-1.3264227 3.1135759 0.9107666
-1.3249444 3.1085279 0.90892839
-1.3230975 3.1033788 0.90663195
-1.3212472 3.0982189 0.90433121
-1.3191767 3.0929909 0.901757
-1.3160626 3.0874789 0.89788437
-1.3129897 3.0819609 0.89406323
-1.3092065 3.076237 0.88935995
-1.3039212 3.070086 0.88278699
-1.2979162 3.06371 0.87531996
-1.2890737 3.0565209 0.86432505
-1.2743795 3.0476539 0.84605408
-1.2693466 3.2348337 0.84733033
-1.2808938 3.2321036 0.86164188
-1.2879833 3.2286167 0.8704288
-1.2945154 3.2250638 0.87852478
-1.2990116 3.2211607 0.88409758
-1.3034858 3.2172768 0.88964272
-1.3068343 3.2131987 0.89379334
-1.3096199 3.2090278 0.89724565
-1.3123968 3.2048697 0.90068793
-1.314656 3.2006207 0.90348697
-1.3163886 3.1962776 0.90563512
-1.3181202 3.1919417 0.90777993
-1.3198462 3.1876147 0.90992022
-1.3209211 3.1831589 0.91125274
-1.3218827 3.1786838 0.91244483
-1.3228444 3.1742139 0.91363573
-1.3238039 3.1697488 0.91482449
-1.3241684 3.1651568 0.91527796
-1.3244805 3.1605549 0.91566372
-1.3247919 3.1559539 0.91605043
-1.325103 3.1513548 0.91643548
-1.3250377 3.1466699 0.91635466
-1.3247234 3.1419268 0.91596556
-1.3244104 3.1371818 0.91557622
-1.3240967 3.1324348 0.91518784
-1.3235649 3.1276338 0.91452885
-1.3225704 3.1227169 0.91329622
-1.321574 3.1177938 0.91206193
-1.3205769 3.1128659 0.91082573
-1.3191326 3.1078198 0.90903568
-1.317277 3.1026618 0.9067359
-1.315418 3.0974927 0.90443182
-1.3134078 3.0922749 0.90194106
-1.3103442 3.0867698 0.89814329
-1.3072701 3.0812459 0.89433289
-1.3036226 3.0755529 0.88981247
-1.2983127 3.0693908 0.88323069
-1.2927949 3.0631449 0.87639189
-1.2839187 3.0559449 0.86539054
-1.2704345 3.047416 0.84867811
-1.2747627 3.2315526 0.86152959
-1.2818878 3.2280626 0.870332
-1.2884847 3.2245116 0.87848234
-1.2930107 3.2206059 0.88407373
-1.2975073 3.2167168 0.88962865
-1.3008752 3.2126348 0.89379001
-1.3036741 3.2084577 0.89724827
-1.3064649 3.2042928 0.9006958
-1.3087323 3.2000377 0.90349627
-1.3104733 3.1956878 0.90564799
-1.3122122 3.1913457 0.90779495
-1.3139472 3.1870127 0.90993881
-1.3150208 3.1825488 0.91126513
-1.3159876 3.1780667 0.9124589
-1.3169522 3.1735897 0.91365075
-1.3179169 3.1691179 0.91484261
-1.3182741 3.1645169 0.91528463
-1.3185868 3.1599078 0.91567135
-1.3188996 3.1552999 0.91605783
-1.3192132 3.1506939 0.91644478
-1.3191589 3.1460037 0.91637707
-1.3188441 3.1412528 0.91598868
-1.3185288 3.1364999 0.91559887
-1.3182132 3.1317458 0.91520905
-1.3177162 3.126946 0.91459465
-1.3167167 3.1220207 0.9133606
-1.3157163 3.1170897 0.91212416
-1.3147136 3.1121538 0.91088605
-1.3133026 3.1071098 0.90914321
-1.3114514 3.1019459 0.90685511
-1.30961 3.0967748 0.90458155
-1.3076997 3.0915768 0.90222025
-1.3046217 3.086062 0.89841795
-1.301533 3.080529 0.89460206
-1.2980235 3.0748668 0.8902669
-1.2928346 3.0687339 0.88385701
-1.2876483 3.0625749 0.87744904
-1.2788266 3.055388 0.86655092
-1.2664866 3.0471778 0.8513062
-1.2686107 3.2310007 0.86141706
-1.2757711 3.2275066 0.87023449
-1.2824256 3.2239568 0.87842917
-1.2869768 3.2200458 0.88403368
-1.2915047 3.2161548 0.88961005
-1.2948966 3.2120678 0.89378643
-1.2977104 3.2078848 0.89725041
-1.3005145 3.2037148 0.90070391
-1.3027883 3.1994529 0.90350461
-1.3045382 3.1950967 0.90565968
-1.306286 3.1907487 0.90781021
-1.3080298 3.1864088 0.90995741
-1.3091011 3.1819367 0.91127682
-1.3100727 3.1774478 0.9124732
-1.3110425 3.1729648 0.91366816
-1.3120105 3.1684859 0.91486025
-1.3123596 3.1638749 0.91529036
-1.312674 3.1592579 0.91567826
-1.3129898 3.1546428 0.91606569
-1.3133039 3.1500299 0.91645217
-1.3132612 3.1453359 0.91640043
-1.3129445 3.1405768 0.91601086
-1.312628 3.1358168 0.91562128
-1.3123113 3.1310549 0.91523027
-1.3118489 3.1262558 0.91466093
-1.3108443 3.1213219 0.91342354
-1.3098404 3.1163838 0.91218829
-1.3088435 3.1114419 0.9109602
-1.3074992 3.1064079 0.90930462
-1.3056526 3.1012387 0.90703082
-1.3038023 3.0960588 0.90475225
-1.3019497 3.0908699 0.90247059
-1.2988814 3.0853529 0.89869404
-1.2957805 3.0798099 0.89487529
-1.2925314 3.074213 0.89087367
-1.287352 3.068078 0.88449645
-1.2821436 3.061909 0.8780818
-1.2738817 3.0548739 0.86790895
-1.2625352 3.0469398 0.85393691
-1.2696334 3.2269487 0.87013626
-1.2763463 3.2233996 0.87837601
-1.2809203 3.2194839 0.88398933
-1.2854706 3.2155876 0.889575
-1.2888914 3.2114978 0.89377308
-1.2917215 3.2073097 0.89724708
-1.2945436 3.2031348 0.90071011
-1.2968266 3.1988668 0.90351224
-1.2985849 3.1945038 0.90567183
-1.3003405 3.1901488 0.90782642
-1.3020923 3.1858027 0.90997648
-1.3031627 3.1813228 0.91128969
-1.3041387 3.1768267 0.91248846
-1.3051133 3.1723368 0.91368365
-1.3060868 3.1678507 0.91487885
-1.3064276 3.1632309 0.91529703
-1.3067437 3.1586068 0.91568589
-1.30706 3.1539848 0.91607285
-1.3073757 3.1493638 0.91646051
-1.3073453 3.1446648 0.91642332
-1.3070273 3.1398988 0.91603374
-1.3067102 3.1351309 0.91564345
-1.3063935 3.1303618 0.91525531
-1.3059767 3.125567 0.91474366
-1.3049773 3.1206279 0.91351724
-1.303977 3.1156828 0.9122889
-1.3029749 3.1107328 0.91105914
-1.3016909 3.1057079 0.90948415
-1.2998365 3.1005299 0.90720749
-1.297978 3.0953419 0.9049263
-1.2961147 3.0901439 0.90263963
-1.2931542 3.0846479 0.89900541
-1.2901045 3.079114 0.89526248
-1.2870448 3.0735619 0.89150691
-1.2818552 3.06742 0.88513708
-1.2766889 3.0612588 0.87879682
-1.2689271 3.054358 0.86926961
-1.2588542 3.046778 0.85690498
-1.2702481 3.2228408 0.8783226
-1.2748432 3.2189207 0.88394451
-1.2794163 3.2150187 0.889539
-1.2828637 3.2109246 0.89375663
-1.2857077 3.2067318 0.89723563
-1.2885431 3.2025506 0.9007051
-1.2908394 3.1982768 0.90351439
-1.2926084 3.1939077 0.90567851
-1.2943728 3.1895468 0.90783668
-1.2961352 3.1851947 0.90999293
-1.2972041 3.1807058 0.91130114
-1.2981851 3.1762037 0.91250014
-1.2991636 3.1717067 0.91369867
-1.3001422 3.1672149 0.91489553
-1.3004751 3.1625848 0.91530323
-1.3007929 3.1579537 0.91569114
-1.3011103 3.1533239 0.91608024
-1.3014281 3.1486959 0.91646814
-1.3014178 3.1439939 0.91645575
-1.3010991 3.139221 0.91606688
-1.3007817 3.134445 0.91567802
-1.3004639 3.129669 0.91528845
-1.3001039 3.1248798 0.91484928
-1.2990999 3.1199329 0.91362047
-1.2980952 3.11498 0.91239095
-1.2970874 3.1100218 0.91115904
-1.2958663 3.1050048 0.90966463
-1.2940022 3.0998187 0.90738344
-1.2921431 3.0946238 0.90510941
-1.2902997 3.0894239 0.90285397
-1.2874755 3.0839589 0.89939928
-1.2844119 3.0784159 0.89565134
-1.281338 3.072855 0.89189053
-1.2763835 3.066771 0.88582873
-1.2713051 3.0606298 0.87961578
-1.2639625 3.0538418 0.87063217
-1.2552094 3.0466261 0.85992336
-1.2687479 3.2183547 0.88390017
-1.2733428 3.2144487 0.88950396
-1.2768168 3.2103508 0.8937397
-1.279675 3.2061517 0.89722562
-1.2825241 3.2019649 0.90069985
-1.2848325 3.1976848 0.90351534
-1.2866092 3.1933088 0.90568089
-1.2883825 3.1889417 0.90784407
-1.290153 3.1845837 0.91000319
-1.2912233 3.1800878 0.91130853
-1.2922087 3.1755788 0.91250992
-1.2931931 3.1710749 0.91371059
-1.2941759 3.1665747 0.91490865
-1.2945042 3.1619368 0.915308
-1.2948234 3.1572978 0.91569757
-1.2951421 3.1526608 0.9160862
-1.2954606 3.1480258 0.91647506
-1.2954648 3.1433198 0.91648102
-1.2951547 3.138541 0.91610217
-1.2948353 3.1337578 0.91571283
-1.2945151 3.128973 0.91532254
-1.2941958 3.124187 0.9149332
-1.2932041 3.119236 0.91372395
-1.2921935 3.114275 0.91249204
-1.2911826 3.109309 0.91125894
-1.2900329 3.1043029 0.9098568
-1.2881879 3.0991149 0.90760779
-1.2863405 3.0939169 0.90535378
-1.2844884 3.0887089 0.90309477
-1.2817812 3.0832679 0.89979315
-1.2787029 3.0777159 0.89604068
-1.275632 3.0721488 0.8922956
-1.2710057 3.06615 0.8866539
-1.265907 3.059999 0.88043571
-1.2590481 3.0533409 0.87207222
-1.2603561 3.2125747 0.88108945
-1.2707509 3.2097747 0.89372396
-1.273623 3.2055697 0.89721489
-1.2764854 3.2013767 0.90069532
-1.2788055 3.1970909 0.90351391
-1.280591 3.1927087 0.90568566
-1.2823741 3.1883359 0.9078517
-1.2841524 3.1839707 0.91001344
-1.2852248 3.1794667 0.91131663
-1.2862145 3.1749508 0.91252041
-1.2872033 3.1704397 0.91372228
-1.2881916 3.1659338 0.91492319
-1.2885131 3.1612859 0.91531348
-1.2888331 3.1566408 0.9157033
-1.2891538 3.1519959 0.91609263
-1.2894742 3.1473539 0.91648269
-1.2894433 3.1426318 0.91644526
-1.2891896 3.1378579 0.91613698
-1.2888696 3.1330678 0.91574717
-1.2885489 3.1282759 0.91535783
-1.288227 3.1234808 0.91496634
-1.2872946 3.1185369 0.91383266
-1.2862899 3.1135709 0.91261244
-1.2852842 3.1085999 0.9113903
-1.2842296 3.103611 0.91010833
-1.2823771 3.0984149 0.90785551
-1.2805202 3.0932078 0.90559912
-1.2786601 3.087991 0.903337
-1.2760684 3.0825748 0.90018868
-1.2730182 3.077024 0.89648056
-1.2699856 3.0714619 0.89279366
-1.2656159 3.065527 0.88748336
-1.2604949 3.0593669 0.88125849
-1.2542782 3.0528808 0.87370253
-1.2534764 3.2118578 0.88015175
-1.2586007 3.2080388 0.88636017
-1.2633517 3.2041728 0.89211702
-1.2663982 3.1999967 0.89580774
-1.27276 3.1964948 0.90351534
-1.2745545 3.1921067 0.90568924
-1.2763449 3.1877267 0.90785861
-1.2781321 3.1833558 0.91002417
-1.2792047 3.1788437 0.91132355
-1.2802005 3.1743209 0.91252995
-1.2811937 3.1698029 0.9137342
-1.2821797 3.1652889 0.9149282
-1.2825016 3.1606338 0.91531849
-1.2828236 3.1559808 0.91570878
-1.2831466 3.1513288 0.91609859
-1.2834626 3.146678 0.91648269
-1.2834018 3.141942 0.91640925
-1.2832094 3.1371748 0.91617632
-1.2828888 3.1323769 0.91578698
-1.282568 3.1275768 0.91539907
-1.2822478 3.122776 0.91501045
-1.2813945 3.1178439 0.91397572
-1.2803837 3.1128688 0.91275287
-1.2793745 3.1078899 0.91152883
-1.2783623 3.1029038 0.91030359
-1.276548 3.097712 0.90810513
-1.2746823 3.0924969 0.90584493
-1.2728174 3.0872719 0.90358543
-1.270406 3.0818958 0.90066433
-1.2673696 3.076344 0.89698458
-1.2643226 3.0707741 0.89329338
-1.2602115 3.064903 0.88831258
-1.2551728 3.0587609 0.88220739
-1.2495009 3.0524211 0.87533593
-1.2517233 3.2073128 0.8854351
-1.2568027 3.2034998 0.89156914
-1.2598661 3.1993179 0.89526892
-1.2629193 3.1951487 0.89895606
-1.2658956 3.1909797 0.90255141
-1.2677495 3.1865978 0.90478992
-1.269599 3.1822248 0.90702295
-1.2714465 3.1778598 0.90925336
-1.2728235 3.1734059 0.91091657
-1.2738307 3.1688797 0.91213393
-1.2748379 3.1643579 0.91334963
-1.2758442 3.1598418 0.91456485
-1.2763671 3.1552238 0.9151969
-1.2766886 3.1505628 0.91558552
-1.2770101 3.1459038 0.91597271
-1.2773306 3.1412468 0.91636038
-1.2772173 3.1364899 0.91622353
-1.2768956 3.1316848 0.9158349
-1.2765734 3.1268768 0.9154458
-1.2762514 3.1220679 0.91505671
-1.2754743 3.1171479 0.91411877
-1.2744601 3.112165 0.91289449
-1.2734457 3.107178 0.91166854
-1.272429 3.1021838 0.91044068
-1.270705 3.0970078 0.90835857
-1.2688599 3.0917921 0.90613151
-1.2670122 3.086565 0.90389967
-1.2647549 3.081223 0.90117264
-1.2617042 3.0756619 0.89749026
-1.258644 3.0700829 0.89379454
-1.2548686 3.064297 0.88923478
-1.2498772 3.0581639 0.88320732
-1.2447703 3.2065768 0.88445044
-1.2499715 3.2027748 0.89071035
-1.2533085 3.1986358 0.89472818
-1.2563788 3.1944599 0.89842319
-1.2594389 3.1902988 0.902107
-1.261404 3.1859298 0.90447283
-1.2632642 3.1815498 0.9067111
-1.2651192 3.1771779 0.90894508
-1.2666193 3.1727409 0.91074967
-1.2676324 3.1682069 0.91196918
-1.2686448 3.1636789 0.91318798
-1.2696556 3.1591549 0.91440415
-1.2702713 3.1545489 0.91514683
-1.2705948 3.1498809 0.91553593
-1.2709171 3.1452148 0.9159236
-1.2712398 3.1405499 0.91631198
-1.2712057 3.1358039 0.91627169
-1.270883 3.130991 0.91588211
-1.2705591 3.1261749 0.91549277
-1.2702361 3.1213589 0.91510296
-1.2695372 3.1164498 0.91426206
-1.2685179 3.1114588 0.91303587
-1.2675062 3.1064649 0.91181755
-1.2664964 3.1014669 0.91060209
-1.2648984 3.0963149 0.90867901
-1.263046 3.0910909 0.9064486
-1.2611881 3.085856 0.90421319
-1.259088 3.0805478 0.901685
-1.2560241 3.0749779 0.89799643
-1.253004 3.0694039 0.89436173
-1.249581 3.0637078 0.89024043
-1.2445695 3.0575659 0.88420892
-1.2429467 3.2020147 0.8896482
-1.2467003 3.1979458 0.89415169
-1.2498137 3.1937687 0.89788818
-1.2528901 3.1896007 0.90157914
-1.2550368 3.1852598 0.90415454
-1.256906 3.1808717 0.90639806
-1.2587721 3.1764939 0.90863585
-1.2603948 3.1720729 0.91058373
-1.261413 3.1675329 0.91180491
-1.2624297 3.1629968 0.9130249
-1.2634457 3.1584659 0.91424417
-1.2641554 3.1538718 0.91509557
-1.2644804 3.1491969 0.91548443
-1.2648048 3.1445229 0.91587424
-1.2651292 3.1398499 0.91626382
-1.2651759 3.1351149 0.91632009
-1.2648509 3.1302938 0.91592979
-1.2645266 3.1254709 0.91554022
-1.2642027 3.120647 0.91515255
-1.2635987 3.1157539 0.91442728
-1.2625859 3.1107578 0.91321206
-1.2615732 3.1057568 0.91199684
-1.260558 3.10075 0.91077948
-1.2590759 3.0956209 0.90900064
-1.2572137 3.0903878 0.90676713
-1.2553476 3.085144 0.90452766
-1.2534118 3.0798731 0.90220499
-1.2504035 3.074312 0.89859605
-1.2473862 3.0687339 0.89497519
-1.2442813 3.063117 0.8912499
-1.2358195 3.2012377 0.88849521
-1.2399851 3.1972377 0.89347625
-1.2431229 3.1930559 0.89722919
-1.2462511 3.1888869 0.90097022
-1.2486198 3.1845808 0.90380383
-1.2505076 3.1801889 0.90606117
-1.2523912 3.1758049 0.90831399
