# .PCD v0.7 - Point Cloud Data file format
VERSION 0.7
FIELDS x y z
SIZE 4 4 4
TYPE F F F
COUNT 1 1 1
WIDTH 1510
HEIGHT 1
VIEWPOINT 0 0 0 1 0 0 0
POINTS 1510
DATA ascii
-2.232846 2.8096824 0.91662973
-2.2314696 2.8050354 0.91844243
-2.2300918 2.8004007 0.9202413
-2.2287166 2.795774 0.92203993
-2.2271163 2.791491 0.92325032
-2.2254283 2.787343 0.92423016
-2.2237418 2.7831991 0.92521095
-2.2220578 2.779058 0.92618954
-2.2203734 2.7749212 0.92716771
-2.2186348 2.7708697 0.92800093
-2.2166924 2.7671161 0.92831194
-2.2137413 2.764801 0.92607379
-2.2099946 2.7635994 0.92184228
-2.2062349 2.7623937 0.91759545
-2.2034197 2.7598376 0.91573882
-2.2013443 2.7562382 0.91574222
-2.199142 2.7528148 0.9154309
-2.196939 2.7493894 0.91511935
-2.1947355 2.7459643 0.91480637
-2.1925311 2.7425373 0.91449332
-2.1901977 2.7392857 0.91386276
-2.1877208 2.7362244 0.91287804
-2.1852407 2.7331612 0.91189337
-2.1827586 2.7300944 0.91090751
-2.1802747 2.7270253 0.90991998
-2.1775448 2.7242765 0.90833557
-2.1747139 2.721652 0.90651232
-2.1718779 2.7190247 0.90468496
-2.1690373 2.7163916 0.90285546
-2.1659739 2.7140374 0.90049237
-2.1626217 2.7120445 0.8974399
-2.1592603 2.7100465 0.89438027
-2.1558893 2.7080419 0.89131117
-2.1517284 2.7070243 0.88635784
-2.147423 2.7061641 0.88107711
-2.1427765 2.7057023 0.87500453
-2.1367877 2.7068882 0.86575162
-2.1288841 2.7104034 0.85198122
-2.1255436 2.7081959 0.84911734
-2.1227248 2.7053299 0.84750336
-2.1199012 2.7024593 0.84588802
-2.1170986 2.6995549 0.84432769
-2.2210398 2.8807592 0.85104245
-2.2246149 2.8681285 0.86606014
-2.2358487 2.8436923 0.9010812
-2.2349317 2.8382478 0.90415812
-2.2340164 2.832818 0.90722662
-2.233104 2.8274028 0.91028661
-2.2321949 2.8220019 0.91333896
-2.2308583 2.817265 0.91527253
-2.2294912 2.8125875 0.9171167
-2.2281263 2.8079164 0.91895705
-2.226759 2.803261 0.92078286
-2.2253783 2.7986364 0.9225648
-2.2236879 2.7944782 0.92354751
-2.2219996 2.7903235 0.92452997
-2.2203124 2.7861726 0.92551053
-2.2186265 2.7820258 0.92649031
-2.216943 2.7778821 0.92747039
-2.2151213 2.7739418 0.92809612
-2.2131765 2.7701826 0.92840904
-2.2112324 2.7664239 0.92872077
-2.2092879 2.7626667 0.92903298
-2.2066898 2.7598324 0.92770445
-2.2029283 2.7586212 0.92347437
-2.199261 2.7572536 0.91949821
-2.1956069 2.7558439 0.91557401
-2.1932981 2.752557 0.91500616
-2.1910913 2.749126 0.91469461
-2.1888838 2.7456951 0.91438085
-2.1864469 2.7425723 0.91350609
-2.183965 2.7395082 0.91252023
-2.1814795 2.7364414 0.91153318
-2.1789916 2.733371 0.91054589
-2.1764739 2.7303355 0.90948939
-2.1736395 2.7277138 0.9076637
-2.1708004 2.7250884 0.90583593
-2.1679566 2.7224584 0.90400547
-2.1651084 2.7198238 0.90217239
-2.1618481 2.7177129 0.89935148
-2.1584833 2.7157204 0.89629209
-2.1551094 2.7137237 0.89322436
-2.1515102 2.7119968 0.88962853
-2.1472039 2.7111475 0.88435543
-2.1428773 2.7102947 0.87905711
-2.1375825 2.7106292 0.87147397
-2.1315539 2.711838 0.86217982
-2.1279685 2.7099588 0.85872507
-2.125159 2.7071013 0.85712332
-2.122345 2.7042406 0.85551697
-2.1195276 2.7013757 0.85390991
-2.2189703 2.8816457 0.85513914
-2.2217243 2.8703105 0.86794794
-2.2232194 2.8610096 0.87740403
-2.2231913 2.8541129 0.882851
-2.2307663 2.8355794 0.90802097
-2.2298577 2.8301554 0.91108358
-2.228863 2.8248789 0.91391104
-2.2274954 2.8201857 0.91575998
-2.2261295 2.8154993 0.9176051
-2.2247653 2.8108208 0.91944641
-2.2234037 2.8061509 0.92128605
-2.2219412 2.8016403 0.92285913
-2.2202513 2.7974734 0.92384565
-2.2185626 2.7933123 0.92482954
-2.2168751 2.7891548 0.92581099
-2.2151895 2.7850008 0.92679298
-2.2135046 2.7808509 0.9277733
-2.2115989 2.7770226 0.92819327
-2.2096517 2.773258 0.92850524
-2.2077043 2.7694941 0.9288184
-2.2057583 2.7657311 0.92913061
-2.2038133 2.7619681 0.92944348
-2.2018423 2.7582426 0.92969298
-2.1996462 2.7548339 0.92937833
-2.1961353 2.7532423 0.92580944
-2.1924815 2.7518277 0.92190218
-2.1888151 2.7504086 0.91798109
-2.1851709 2.7489345 0.91413581
-2.1826847 2.7458689 0.91314876
-2.1801963 2.7428014 0.91216099
-2.1777058 2.7397304 0.9111734
-2.1752117 2.7366581 0.91018373
-2.1725631 2.7337873 0.90881777
-2.1697202 2.7311642 0.90698922
-2.1668732 2.7285359 0.90515834
-2.1640213 2.7259035 0.90332407
-2.1610732 2.723387 0.90126449
-2.1577051 2.7214017 0.89820653
-2.1543283 2.7194114 0.89513928
-2.1509423 2.7174149 0.89206368
-2.1469846 2.716131 0.8876335
-2.1426575 2.7152886 0.88234353
-2.1383102 2.7144439 0.87702823
-2.1335061 2.7141435 0.87065119
-2.1306124 2.7114222 0.8688305
-2.1277149 2.7086976 0.8670072
-2.1248121 2.7059674 0.86518103
-2.1219676 2.7031558 0.86349791
-2.114691 2.7057517 0.85141253
-2.2169003 2.8825309 0.85923326
-2.2188299 2.8724971 0.86983669
-2.2200274 2.8636599 0.87848377
-2.2200613 2.8566692 0.88407212
-2.2200329 2.8498051 0.88947475
-2.2266045 2.8329141 0.9118824
-2.2254906 2.8278141 0.91439635
-2.2241232 2.8231125 0.91624647
-2.2227581 2.8184185 0.9180938
-2.2213964 2.8137321 0.91993773
-2.2200353 2.8090537 0.92177904
-2.2184851 2.8046665 0.92312771
-2.2167997 2.8004858 0.92412901
-2.215116 2.7963088 0.92512935
-2.213428 2.7921448 0.92611223
-2.2117414 2.7879841 0.92709446
-2.2100155 2.7838843 0.92797726
-2.2080662 2.7801127 0.92829067
-2.2061164 2.7763414 0.92860329
-2.2041674 2.7725718 0.92891622
-2.2022195 2.7688026 0.92922843
-2.2002716 2.7650349 0.92954135
-2.1982181 2.7614167 0.92959172
-2.1960173 2.7580028 0.92927611
-2.1938171 2.7545886 0.92896217
-2.1916153 2.751173 0.92864728
-2.1893632 2.747823 0.92821145
-2.1856956 2.7463994 0.92430687
-2.1821725 2.7447591 0.92077059
-2.1786485 2.7430987 0.9172489
-2.1751125 2.7414327 0.9137165
-2.1715662 2.7397616 0.91017258
-2.1686385 2.7372506 0.90814495
-2.1657875 2.7346251 0.90631258
-2.1629326 2.7319956 0.90447789
-2.160073 2.729362 0.90264004
-2.1569266 2.7270892 0.90012217
-2.1535473 2.7251053 0.89705658
-2.1501584 2.7231159 0.89398146
-2.1467597 2.7211208 0.8908987
-2.1424372 2.7202845 0.885629
-2.1393468 2.7178593 0.88330734
-2.1363235 2.7153375 0.8811574
-2.1333311 2.7127635 0.87909085
-2.130444 2.710048 0.87728041
-2.1275527 2.7073276 0.87546766
-2.1246567 2.704603 0.87365198
-2.1182837 2.7061343 0.86369014
-2.105979 2.7148485 0.83989221
-2.2142231 2.8843677 0.86173999
-2.2159328 2.8746841 0.8717283
-2.2168298 2.8663161 0.87956685
-2.2168837 2.859293 0.88518834
-2.2169046 2.8523531 0.89070064
-2.2160573 2.8467698 0.89395326
-2.22211 2.8307567 0.91488266
-2.2207434 2.8260462 0.91673589
-2.2193789 2.8213451 0.91858411
-2.2180181 2.8166499 0.92042994
-2.2166586 2.8119633 0.92227268
-2.2150195 2.8077004 0.9233982
-2.2133338 2.8035131 0.92440021
-2.2116494 2.7993295 0.92540193
-2.2099671 2.7951493 0.92640203
-2.2082853 2.7909746 0.92739904
-2.206476 2.7869878 0.92807412
-2.2045238 2.7832098 0.92838705
-2.2025728 2.7794333 0.92870116
-2.2006211 2.7756584 0.92901456
-2.1986701 2.771884 0.92932677
-2.1967206 2.7681103 0.92964083
-2.1945839 2.7646 0.92949027
-2.1923792 2.7611816 0.92917484
-2.1901746 2.7577631 0.92885947
-2.1879685 2.754343 0.92854482
-2.1857622 2.7509217 0.92822921
-2.1835477 2.7475111 0.9278931
-2.1810629 2.7444627 0.92690241
-2.1785765 2.7414126 0.92591035
-2.175668 2.7389205 0.92389917
-2.1721334 2.7372508 0.92038298
-2.1686261 2.7355254 0.91694707
-2.1652627 2.7335894 0.91387606
-2.161891 2.7316482 0.91079664
-2.1585097 2.7297013 0.90770888
-2.1551709 2.7276838 0.90473509
-2.1519821 2.7254539 0.90213352
-2.1487854 2.7232208 0.899526
-2.1455817 2.7209814 0.89691085
-2.1424215 2.7186718 0.89441299
-2.1394117 2.7161586 0.89228094
-2.1363962 2.7136414 0.89014381
-2.1333747 2.7111189 0.88800317
-2.1303482 2.7085912 0.88585865
-2.1257055 2.7080519 0.87993371
-2.1196718 2.7091942 0.87077612
-2.1116164 2.7127628 0.85693556
-2.2112207 2.8867104 0.86340868
-2.2130313 2.8768744 0.87362182
-2.2136261 2.8689771 0.88065135
-2.2136874 2.8619416 0.88627476
-2.2135911 2.8551805 0.89146709
-2.2127299 2.849613 0.89467824
-2.2118568 2.8440831 0.89784098
-2.2173548 2.8289883 0.91722476
-2.2159922 2.8242781 0.91907537
-2.2146313 2.819576 0.92092288
-2.213233 2.8149407 0.92266524
-2.211545 2.8107431 0.92366868
-2.2098591 2.8065491 0.92467207
-2.208174 2.8023579 0.9256748
-2.206491 2.7981713 0.92667633
-2.2048087 2.7939885 0.9276762
-2.202924 2.790102 0.92816722
-2.2009723 2.7863164 0.92848444
-2.1990173 2.7825341 0.92879879
-2.1970644 2.778753 0.9291119
-2.1951115 2.7749732 0.92942601
-2.1931453 2.7712145 0.92970389
-2.1909375 2.7677932 0.92938852
-2.1887302 2.7643702 0.9290731
-2.1865211 2.7609463 0.92875654
-2.1843114 2.7575223 0.92844117
-2.1821015 2.7540963 0.92812508
-2.1797926 2.7508042 0.92756838
-2.1773019 2.7477529 0.92657489
-2.1748102 2.744699 0.92558187
-2.1723149 2.7416425 0.92458713
-2.1698182 2.7385828 0.92359126
-2.1673186 2.7355206 0.92259467
-2.1644921 2.7328832 0.92081666
-2.1616383 2.7302728 0.91898096
-2.1587796 2.7276583 0.91714096
-2.1556165 2.7254264 0.91458619
-2.1522851 2.7233984 0.91163933
-2.1490979 2.7211676 0.90904945
-2.1459033 2.7189326 0.90645361
-2.1427011 2.7166917 0.90385181
-2.1394341 2.7145202 0.90110737
-2.1351426 2.7136185 0.89596498
-2.1307862 2.7127707 0.89069259
-2.1264095 2.7119184 0.88539541
-2.1205723 2.7128422 0.87671024
-2.1145005 2.7140062 0.86751306
-2.1049206 2.7194133 0.8501929
-2.2082138 2.8890567 0.86507785
-2.2101271 2.8790679 0.87551844
-2.2104163 2.8716428 0.88173866
-2.2104857 2.8645942 0.88736427
-2.2102182 2.8580925 0.89210379
-2.2093773 2.8524909 0.89535689
-2.2085257 2.8469226 0.89857018
-2.207659 2.841398 0.90172768
-2.2063193 2.8365993 0.90367293
-2.2112379 2.8225083 0.92141724
-2.2097502 2.8179989 0.92293501
-2.2080622 2.8137932 0.92394006
-2.2063754 2.8095925 0.9249447
-2.2046897 2.8053944 0.92594886
-2.2030053 2.8012006 0.92695063
-2.2013166 2.7970204 0.92793572
-2.1993608 2.7932284 0.92825431
-2.1974056 2.7894371 0.92857295
-2.1954517 2.7856472 0.92889112
-2.1934974 2.7818573 0.92920977
-2.1915436 2.7780709 0.92952603
-2.1894932 2.774421 0.92960238
-2.1872814 2.7709949 0.92928678
-2.1850693 2.7675681 0.92897063
-2.1828575 2.7641397 0.92865407
-2.1806438 2.76071 0.92833799
-2.1784303 2.7572794 0.92802119
-2.1760247 2.7541075 0.92724228
-2.1735291 2.7510533 0.92624784
-2.1710317 2.7479959 0.9252519
-2.1685309 2.744935 0.92425603
-2.1660283 2.7418728 0.92325842
-2.1634312 2.7389302 0.92203748
-2.160573 2.7363226 0.92019916
-2.1577101 2.7337105 0.91835892
-2.1548433 2.7310939 0.91651535
-2.1519706 2.7284737 0.91466898
-2.148896 2.7261045 0.91234946
-2.1455004 2.7241313 0.9092834
-2.1420965 2.7221534 0.9062078
-2.1386824 2.7201707 0.90312433
-2.1349857 2.7185264 0.89939064
-2.1306288 2.7176905 0.89412588
-2.1262527 2.7168491 0.88883758
-2.1214709 2.7164814 0.8826288
-2.1154106 2.7176592 0.87346721
-2.1085393 2.7197809 0.86246431
-2.0970225 2.7275209 0.84073699
-2.2052028 2.8914065 0.86675173
-2.2070844 2.8814707 0.87707126
-2.2072008 2.8743141 0.88282722
-2.2072783 2.8672514 0.88845664
-2.2068381 2.8610115 0.89274192
-2.2059999 2.8553987 0.89599741
-2.2051649 2.8498025 0.89924383
-2.2042255 2.8443811 0.9022125
-2.2028699 2.8396001 0.90411627
-2.2015176 2.8348262 0.90601671
-2.2062581 2.821063 0.92320567
-2.2045693 2.8168511 0.92421198
-2.2028823 2.8126435 0.92521781
-2.2011952 2.8084395 0.92622221
-2.1995111 2.8042381 0.92722589
-2.1977453 2.8001606 0.92802328
-2.1957872 2.7963629 0.92834264
-2.1938305 2.7925653 0.92866129
-2.1918736 2.7887702 0.92898059
-2.1899176 2.7849748 0.92929947
-2.1879621 2.7811813 0.9296174
-2.1858311 2.7776346 0.92950445
-2.1836147 2.7742054 0.92918527
-2.1813989 2.7707746 0.92886794
-2.1791823 2.7673411 0.92855138
-2.1769662 2.7639072 0.9282341
-2.1747456 2.7604759 0.92791158
-2.1722462 2.757422 0.92691517
-2.169745 2.7543631 0.92591977
-2.1672409 2.751302 0.92492199
-2.1647351 2.7482388 0.92392367
-2.1622269 2.7451732 0.9229247
-2.1595054 2.7423825 0.92142022
-2.1566398 2.7397735 0.91957951
-2.1537681 2.7371597 0.91773498
-2.1508934 2.7345417 0.91588759
-2.1480134 2.7319188 0.9140383
-2.1447537 2.7297754 0.91129893
-2.141346 2.7278039 0.90822595
-2.137929 2.7258275 0.90514296
-2.1345034 2.7238455 0.9020533
-2.1304715 2.722609 0.89755994
-2.1260946 2.7217798 0.89227945
-2.1216974 2.7209463 0.88697392
-2.116317 2.7213032 0.87940699
-2.1102195 2.722502 0.87020916
-2.1021926 2.7260172 0.85658771
-2.2021871 2.8937597 0.86842591
-2.2037964 2.8842506 0.87801194
-2.2039609 2.8770192 0.88387096
-2.2040634 2.8699143 0.88955063
-2.2034492 2.8639364 0.893381
-2.2026162 2.8583138 0.89663959
-2.2017848 2.8527067 0.89988887
-2.2007508 2.8474231 0.90261245
-2.1994102 2.842612 0.9045527
-2.1980615 2.8378248 0.90646434
-2.1967111 2.8330505 0.90836382
-2.195251 2.8284497 0.90998048
-2.1993797 2.8157027 0.92549139
-2.1976931 2.8114913 0.9264974
-2.1960073 2.8072841 0.92750227
-2.194164 2.8033102 0.92811131
-2.192204 2.7995067 0.92843139
-2.1902447 2.7957039 0.92875075
-2.1882856 2.7919016 0.92907012
-2.1863279 2.7881017 0.92938918
-2.1843696 2.7843025 0.92970783
-2.1821604 2.7808554 0.92941296
-2.1799397 2.7774217 0.92909235
-2.1777196 2.7739863 0.92877239
-2.1754982 2.7705512 0.92845178
-2.1732767 2.7671146 0.92813069
-2.1709607 2.7638044 0.92758542
-2.1684556 2.7607453 0.92658883
-2.1659484 2.757684 0.92558986
-2.163439 2.7546206 0.92459059
-2.160928 2.7515533 0.92359042
-2.1584132 2.7484837 0.92258972
-2.1555667 2.7458472 0.92080176
-2.1526923 2.7432361 0.91895676
-2.1498137 2.7406204 0.91710913
-2.1469302 2.7380009 0.91525865
-2.1440051 2.7354248 0.91331732
-2.140595 2.7334604 0.91024506
-2.1371756 2.7314904 0.90716422
-2.1337469 2.7295146 0.90407479
-2.1303082 2.7275345 0.9009763
-2.1259382 2.7267084 0.89572036
-2.1215408 2.7258861 0.89042437
-2.1171224 2.7250614 0.88510239
-2.1111948 2.7260768 0.87630874
-2.1051686 2.7271638 0.86732495
-2.0958548 2.7322299 0.85080117
-2.199168 2.8961155 0.87010431
-2.200501 2.8870349 0.87895483
-2.2006741 2.8797894 0.88481665
-2.200844 2.872582 0.89064586
-2.2000535 2.8668692 0.89402127
-2.1992238 2.8612351 0.8972832
-2.1983962 2.8556173 0.90053463
-2.197262 2.8504782 0.90300161
-2.1959226 2.8456588 0.90494519
-2.1945858 2.840847 0.90688455
-2.1932483 2.8360484 0.90881407
-2.1917055 2.8315611 0.91022521
-2.1900125 2.8273029 0.9112556
-2.1883199 2.8230491 0.91228455
-2.1924946 2.8103373 0.92777991
-2.1905723 2.806469 0.92819941
-2.1886108 2.8026595 0.92851853
-2.1866493 2.7988505 0.92883903
-2.1846883 2.795043 0.92915887
-2.1827278 2.7912362 0.92947894
-2.1807034 2.7875218 0.92964089
-2.1784794 2.7840843 0.92932028
-2.1762555 2.7806466 0.92899919
-2.174031 2.7772071 0.92867804
-2.1718059 2.773767 0.92835695
-2.1695807 2.7703257 0.92803609
-2.1671729 2.7671285 0.9272815
-2.16466 2.7640703 0.92627627
-2.1621435 2.7610099 0.92526895
-2.1596262 2.7579463 0.92426163
-2.1571074 2.754878 0.92325568
-2.1544919 2.7519312 0.92202586
-2.1516147 2.7493234 0.92018139
-2.1487324 2.7467108 0.91833258
-2.1458457 2.7440941 0.9164809
-2.1429536 2.7414725 0.91462612
-2.1398432 2.7391224 0.91226774
-2.1364202 2.7371595 0.90918785
-2.1329896 2.7351913 0.90609914
-2.1295478 2.7332175 0.90300232
-2.1257808 2.7316372 0.89916205
-2.1213894 2.7308197 0.89388776
-2.1169987 2.7299719 0.8886373
-2.1121678 2.7296419 0.88239276
-2.1061537 2.730742 0.87344456
-2.0994644 2.7326212 0.86298412
-2.1961439 2.8984752 0.87178302
-2.1971996 2.8898251 0.87989837
-2.1973813 2.882565 0.88576478
-2.1974428 2.8755209 0.89130306
-2.1966455 2.8698132 0.89465588
-2.1958237 2.8641629 0.89792901
-2.1949995 2.8585353 0.90118307
-2.1937637 2.8535428 0.90339202
-2.1924262 2.8487144 0.90533799
-2.1910913 2.8438933 0.90728039
-2.1897573 2.8390806 0.90921968
-2.1881473 2.8346868 0.91046274
-2.1864564 2.8304157 0.91150266
-2.1847639 2.826154 0.91253352
-2.1830728 2.8218966 0.91356272
-2.1813102 2.8177471 0.91441208
-2.1850076 2.8058205 0.928608
-2.1830432 2.8020062 0.92892855
-2.1810803 2.798193 0.92924833
-2.1791177 2.7943804 0.92956913
-2.1770146 2.7907658 0.92954797
-2.1747878 2.7873242 0.92922783
-2.1725597 2.7838807 0.92890579
-2.1703312 2.7804368 0.92858487
-2.1681023 2.7769918 0.92826283
-2.1658728 2.773546 0.92794102
-2.1633768 2.7704582 0.92698491
-2.1608589 2.7673979 0.92597783
-2.1583371 2.7643335 0.92496878
-2.1558135 2.7612667 0.92396027
-2.1532886 2.7581971 0.92294961
-2.1505535 2.7553968 0.92145127
-2.147666 2.75279 0.91959769
-2.144773 2.7501791 0.91773909
-2.1418748 2.7475634 0.91587865
-2.138973 2.7449436 0.91401482
-2.1356821 2.7428124 0.91125274
-2.132251 2.7408476 0.90817189
-2.1288097 2.7388761 0.90508461
-2.1253595 2.7368989 0.90198708
-2.1212916 2.7356844 0.89747268
-2.1169009 2.734848 0.89223176
-2.1124902 2.7340088 0.88696611
-2.1071351 2.7343116 0.87954843
-2.1010842 2.7354326 0.87056488
-2.1930423 2.9009502 0.87328094
-2.1938913 2.8926218 0.88084483
-2.1940808 2.8853467 0.88671404
-2.19399 2.8785338 0.8918525
-2.1931975 2.8728139 0.89520884
-2.1924078 2.8671107 0.89855498
-2.1915963 2.8614595 0.90183336
-2.1902573 2.8566134 0.9037841
-2.1889207 2.8517759 0.90573221
-2.187587 2.8469472 0.9076758
-2.1862559 2.8421264 0.90961796
-2.1845703 2.8378336 0.91067886
-2.1828814 2.8335521 0.91172618
-2.1811943 2.8292735 0.91277343
-2.1795061 2.8250041 0.91381335
-2.1776721 2.8209486 0.91449177
-2.1756957 2.8171015 0.91481829
-2.1737187 2.8132555 0.91514552
-2.1717422 2.8094094 0.91547221
-2.1754973 2.7975328 0.92965883
-2.173316 2.7940187 0.92945504
-2.1710849 2.7905724 0.92913347
-2.1688535 2.7871244 0.92881233
-2.1666214 2.7836766 0.92849076
-2.1643884 2.7802269 0.92816895
-2.1620915 2.7768617 0.92769593
-2.1595697 2.7737999 0.92668837
-2.1570449 2.770736 0.9256779
-2.1545172 2.767668 0.92466843
-2.1519883 2.7645974 0.92365795
-2.1494565 2.7615249 0.92264491
-2.1466079 2.7588642 0.9208917
-2.143712 2.7562563 0.91903359
-2.140811 2.753643 0.91717261
-2.1379056 2.7510259 0.91530782
-2.134969 2.7484391 0.91337985
-2.1315343 2.7464797 0.91030043
-2.1280901 2.7445157 0.90721363
-2.1246374 2.7425458 0.90411872
-2.1211753 2.7405698 0.90101427
-2.1168036 2.739723 0.89582485
-2.1123934 2.7388945 0.89056867
-2.1079621 2.7380619 0.88528794
-2.1020741 2.7390058 0.87668902
-2.0959876 2.7401488 0.86767048
-2.1899097 2.9034717 0.87471354
-2.1905718 2.8954303 0.88178194
-2.1907747 2.8881338 0.88766623
-2.1905303 2.8815527 0.8924036
-2.1897414 2.8758218 0.89576328
-2.1889553 2.8701072 0.8991127
-2.1880713 2.8645601 0.90220177
-2.1867425 2.8596928 0.90417731
-2.1854079 2.8548465 0.9061262
-2.1840751 2.8500078 0.9080736
-2.1826754 2.8452814 0.90984529
-2.1809838 2.8409886 0.91089541
-2.1792946 2.8366992 0.91194439
-2.1776071 2.8324134 0.91299289
-2.1759207 2.8281331 0.91403997
-2.1740236 2.8241601 0.9145686
-2.1720459 2.8203056 0.91489917
-2.1700664 2.8164532 0.91522545
-2.168088 2.8126023 0.91555262
-2.166111 2.8087528 0.91587985
-2.163868 2.8052733 0.91556877
-2.1616182 2.8018024 0.91524237
-2.1651356 2.7903781 0.92871797
-2.1629 2.7869256 0.92839569
-2.1606629 2.7834713 0.92807341
-2.1582775 2.7802174 0.92739892
-2.1557493 2.7771521 0.92638963
-2.153219 2.7740831 0.92537874
-2.1506865 2.7710135 0.92436659
-2.1481512 2.7679396 0.92335379
-2.1455498 2.7649488 0.92218763
-2.1426504 2.7623432 0.92032999
-2.139746 2.7597332 0.91846806
-2.1368368 2.7571192 0.91660279
-2.1339231 2.7545009 0.9147349
-2.1308179 2.7521179 0.91243184
-2.1273713 2.7501605 0.90934575
-2.1239152 2.7481978 0.90625179
-2.1204505 2.7462289 0.90314949
-2.1167061 2.7445953 0.89941698
-2.1122952 2.7437789 0.89417011
-2.1078653 2.7429581 0.88889819
-2.1030631 2.7425699 0.8827979
-2.1867714 2.9059966 0.87614661
-2.1871865 2.898335 0.88257337
-2.1874616 2.8909271 0.8886193
-2.1870608 2.8845799 0.89295471
-2.1862767 2.8788371 0.89631867
-2.1854951 2.8731115 0.89967096
-2.1845224 2.8676896 0.90253711
-2.1832013 2.8628042 0.90452838
-2.1818819 2.8579283 0.90651536
-2.1805537 2.8530777 0.90847087
-2.1790788 2.8484519 0.91006112
-2.177388 2.844151 0.91111344
-2.1756978 2.8398552 0.91216308
-2.1740096 2.8355629 0.91321278
-2.1723223 2.8312752 0.91426104
-2.170361 2.8273852 0.91463786
-2.1683803 2.8235245 0.91496956
-2.1664007 2.819665 0.91530085
-2.1644216 2.8158057 0.91563183
-2.1623809 2.8120356 0.91581315
-2.1601281 2.8085606 0.91548628
-2.1578743 2.8050849 0.91515756
-2.1556201 2.8016081 0.91483074
-2.1533654 2.7981308 0.9145022
-2.1509783 2.7948315 0.913863
-2.1544514 2.783582 0.9271028
-2.1519182 2.780514 0.92609072
-2.1493816 2.7774432 0.92507738
-2.1468427 2.774369 0.92406338
-2.1443028 2.771292 0.92304862
-2.1415858 2.7684419 0.92162782
-2.1386781 2.7658339 0.91976637
-2.1357658 2.7632227 0.91790015
-2.1328487 2.7606075 0.91603249
-2.1299264 2.7579873 0.91416007
-2.1266515 2.7558107 0.91147977
-2.1231923 2.7538552 0.90838772
-2.1197245 2.751893 0.90528637
-2.1162469 2.7499263 0.90217644
-2.1121988 2.748662 0.89777052
-2.1077681 2.7478526 0.89250743
-2.087785 2.7664475 0.85170895
-2.0734611 2.7777781 0.82399881
-2.1834922 2.9087336 0.87724519
-2.1837935 2.9012461 0.88336742
-2.1840944 2.8937981 0.88945776
-2.1835842 2.8876123 0.89350986
-2.1828036 2.8818588 0.89687574
-2.1820264 2.876122 0.90023065
-2.1809652 2.8708274 0.90287358
-2.1796451 2.8659334 0.90486628
-2.1783271 2.8610485 0.9068557
-2.1770122 2.8561709 0.90884244
-2.1754742 2.85163 0.9102779
-2.1737819 2.8473227 0.91133094
-2.172092 2.8430202 0.9123823
-2.170403 2.8387203 0.91343313
-2.1686716 2.8344877 0.9143765
-2.1666882 2.8306201 0.91470826
-2.1647062 2.8267527 0.91504067
-2.162724 2.8228869 0.91537243
-2.160743 2.8190215 0.91570342
-2.158638 2.8153317 0.91573906
-2.1563795 2.8118539 0.9154079
-2.1541209 2.8083756 0.91507703
-2.1518614 2.8048959 0.91474587
-2.1496029 2.8014138 0.91441691
-2.1471353 2.798214 0.91359651
-2.1445789 2.7951293 0.91257197
-2.1420209 2.7920411 0.91154456
-2.1394598 2.7889504 0.91051793
-2.1368475 2.7859225 0.90937394
-2.1339195 2.7833076 0.90749794
-2.1309862 2.7806878 0.90561813
-2.1280484 2.7780638 0.90373474
-2.1317725 2.7667248 0.91733056
-2.1288466 2.7641075 0.91545856
-2.1259158 2.7614861 0.91358328
-2.1224687 2.7595179 0.91052437
-2.1107905 2.7680707 0.88852954
-2.1063843 2.7672358 0.88333559
-2.1019661 2.7663875 0.87813592
-2.0964887 2.7668443 0.87053752
-2.0906055 2.7677693 0.86204255
-2.0821636 2.7718372 0.84775984
-2.1800833 2.9116664 0.87803638
-2.1803942 2.9041631 0.88416409
-2.1807034 2.8966987 0.8902573
-2.180069 2.8906982 0.89399105
-2.1793227 2.8848891 0.8974328
-2.1785483 2.8791401 0.90079224
-2.1773984 2.8739743 0.90320963
-2.1760795 2.8690703 0.90520614
-2.1747627 2.8641765 0.90719718
-2.173449 2.8592901 0.9091863
-2.1718471 2.8548357 0.91046584
-2.1701612 2.8505123 0.91153508
-2.1684763 2.8461928 0.91260266
-2.1667862 2.8418856 0.91365451
-2.1649897 2.8377376 0.91444594
-2.1630051 2.833863 0.91477841
-2.1610208 2.8299901 0.9151113
-2.1590362 2.8261175 0.91544449
-2.1570532 2.8222473 0.91577572
-2.1548834 2.8186364 0.91566443
-2.1526227 2.8151546 0.91533357
-2.1503596 2.8116717 0.91500264
-2.1480966 2.8081872 0.91467106
-2.145833 2.8047013 0.91433942
-2.1432881 2.8015959 0.91334784
-2.1407239 2.7985108 0.91231614
-2.1381567 2.795423 0.9112826
-2.1355884 2.7923324 0.91024804
-2.1328726 2.7894309 0.90887517
-2.129936 2.7868142 0.90699488
-2.1269944 2.7841938 0.90511048
-2.1240489 2.7815681 0.90322471
-2.1209664 2.7791092 0.90103161
-2.1174881 2.7771511 0.89793545
-2.1140022 2.7751865 0.89483291
-2.1105106 2.7732105 0.89173061
-2.1063747 2.7720425 0.88716567
-2.1019781 2.7711782 0.88202226
-2.0975604 2.7703114 0.87685573
-2.091702 2.7712309 0.8684268
-2.0856071 2.7723982 0.85949647
-2.0767057 2.7770138 0.84423685
-2.1766653 2.9146085 0.87882638
-2.1769872 2.9070859 0.88496077
-2.1772761 2.8996506 0.89098841
-2.1765358 2.893806 0.89445156
-2.1757972 2.8879795 0.89790469
-2.1750603 2.8821709 0.90134645
-2.1738217 2.8771279 0.90354729
-2.1725049 2.8722155 0.90554476
-2.1711898 2.8673127 0.90753961
-2.1698768 2.8624167 0.90953046
-2.16821 2.8580513 0.91065258
-2.166522 2.8537204 0.91172254
-2.1648369 2.8493929 0.91279155
-2.1631525 2.8450711 0.91386032
-2.161299 2.8409967 0.91451538
-2.1593113 2.837117 0.91484898
-2.1573248 2.8332372 0.91518193
-2.1553383 2.8293586 0.91551465
-2.1533527 2.8254821 0.91584706
-2.151119 2.8219521 0.9155913
-2.1488531 2.8184648 0.91525894
-2.1465864 2.8149767 0.91492784
-2.1443198 2.8114877 0.91459525
-2.1420019 2.8080666 0.91414517
-2.1394339 2.8049817 0.91311204
-2.1368642 2.8018928 0.91207844
-2.1342914 2.7988024 0.91104299
-2.1317165 2.7957072 0.91000652
-2.1289082 2.7929182 0.90843189
-2.1259623 2.7903025 0.90654469
-2.1230118 2.7876811 0.90465534
-2.1200562 2.7850566 0.90276194
-2.1168389 2.7827616 0.90027219
-2.1133542 2.7807989 0.89718151
-2.1098602 2.7788298 0.89408135
-2.1063561 2.7768564 0.89097309
-2.1019886 2.7759676 0.8859055
-2.097574 2.7751114 0.88074946
-2.0927956 2.774683 0.87479347
-2.0868926 2.7756379 0.86630565
-2.0801098 2.7776437 0.85586381
-2.070143 2.7835538 0.83827055
-2.1731708 2.9176602 0.87945068
-2.1735718 2.9100173 0.88576007
-2.1737299 2.9027774 0.89144671
-2.1729934 2.8969212 0.89491278
-2.1722598 2.8910828 0.89836925
-2.1715274 2.8852623 0.90181547
-2.1702259 2.8803065 0.90385926
-2.1689203 2.8753693 0.90588629
-2.1676071 2.8704562 0.90788233
-2.1662514 2.8656185 0.90976679
-2.1645617 2.861275 0.91083986
-2.162874 2.8569362 0.91191167
-2.1611884 2.852602 0.91298187
-2.1595039 2.8482718 0.91405159
-2.1575923 2.8442705 0.91457504
-2.1556044 2.8403823 0.91491175
-2.1536171 2.8364952 0.91524875
-2.1516302 2.8326089 0.91558576
-2.1496117 2.8287673 0.91584975
-2.1473427 2.8252764 0.91551667
-2.1450737 2.8217854 0.91518462
-2.142803 2.8182926 0.9148525
-2.140532 2.8147991 0.9145202
-2.1381412 2.8114653 0.91391104
-2.1355684 2.808377 0.91287625
-2.1329923 2.8052852 0.91184008
-2.1304142 2.8021908 0.91080242
-2.1278341 2.7990932 0.90976453
-2.124933 2.7964156 0.90798938
-2.1219788 2.7937977 0.9060998
-2.1190205 2.7911761 0.90420592
-2.1160567 2.7885482 0.90230966
-2.1127052 2.7864149 0.89953208
-2.1092083 2.7844534 0.89643431
-2.1057026 2.7824864 0.89332741
-2.102001 2.7807534 0.88978755
-2.0975866 2.7799084 0.88464177
-2.0931525 2.7790594 0.87947237
-2.087996 2.7790918 0.87269133
-2.0821419 2.7799628 0.8643595
-2.0747564 2.7826996 0.85260975
-2.062623 2.7912714 0.83022064
-2.1696699 2.9207182 0.88007683
-2.170099 2.9130285 0.88643944
-2.1701748 2.9059129 0.89190555
-2.1694429 2.9000437 0.89537632
-2.1687138 2.8941922 0.89883637
-2.1679089 2.8884747 0.90209931
-2.1666069 2.8835137 0.90414089
-2.165307 2.8785605 0.90617865
-2.1640093 2.8736172 0.90821236
-2.1625934 2.8688581 0.9099533
-2.1609044 2.8645086 0.91102755
-2.1592164 2.860162 0.91210032
-2.1575291 2.8558197 0.91317266
-2.1558444 2.8514826 0.91424334
-2.1538758 2.8475535 0.91463542
-2.1518857 2.8436584 0.91497332
-2.1498952 2.8397665 0.91531032
-2.1479068 2.8358738 0.91564846
-2.1458313 2.8321025 0.91578257
-2.1435575 2.8286092 0.91544712
-2.141283 2.8251145 0.91511172
-2.1390078 2.8216176 0.9147777
-2.1367323 2.8181198 0.91444415
-2.134269 2.8148749 0.91367453
-2.1316905 2.8117833 0.91263813
-2.1291089 2.8086877 0.91160095
-2.1265254 2.8055897 0.9105621
-2.1239026 2.8025386 0.90943694
-2.120945 2.7999234 0.90754616
-2.1179829 2.7973044 0.905653
-2.1150153 2.7946813 0.90375549
-2.1120436 2.7920532 0.90185612
-2.1085567 2.7900827 0.89878768
-2.1050484 2.7881224 0.89568394
-2.1015308 2.7861564 0.89257157
-2.097599 2.7847035 0.88853168
-2.0931656 2.7838657 0.88337278
-2.0887358 2.7829928 0.87824392
-2.0832973 2.783365 0.87085962
-2.0774312 2.7842305 0.86254323
-2.0693722 2.7877846 0.84933567
-2.1661603 2.9237833 0.88070542
-2.1666005 2.9160762 0.8870728
-2.1665871 2.9090912 0.8923071
-2.1658838 2.9031744 0.89583969
-2.1651587 2.8973112 0.89930379
-2.1642785 2.8916998 0.90237832
-2.1629786 2.8867283 0.90442228
-2.1616797 2.8817663 0.90646291
-2.1603839 2.8768129 0.90849948
-2.1589177 2.8721211 0.91011834
-2.157233 2.867754 0.91120833
-2.1555474 2.8633969 0.91228968
-2.1538608 2.8590472 0.91336298
-2.1521423 2.854748 0.91435856
-2.1501489 2.8508458 0.91469598
-2.1481559 2.8469458 0.91503394
-2.1461637 2.8430464 0.91537285
-2.1441717 2.839148 0.91570979
-2.1420419 2.8354459 0.91571915
-2.1397631 2.8319478 0.91538304
-2.1374843 2.8284485 0.91504759
-2.1352048 2.8249481 0.91471094
-2.1329238 2.8214467 0.91437483
-2.1303928 2.8182847 0.9134559
-2.1278057 2.8151925 0.91241187
-2.125217 2.8120973 0.91136825
-2.1226246 2.8089988 0.9103232
-2.119909 2.8060601 0.90899611
-2.1169436 2.8034441 0.90710247
-2.1139731 2.8008239 0.90520471
-2.1109977 2.7981982 0.90330416
-2.1079051 2.7957153 0.90114486
-2.1043947 2.7937603 0.89804494
-2.1008809 2.7917953 0.89494717
-2.0973566 2.7898228 0.89184195
-2.0932245 2.7886119 0.88737214
-2.0888019 2.7877431 0.88226807
-2.0843599 2.7868707 0.87713945
-2.0785956 2.7876341 0.86906129
-2.0726993 2.7885172 0.86071938
-2.0641577 2.7926495 0.84649128
-2.1630919 2.919131 0.88770783
-2.1629732 2.9123037 0.8926686
-2.1622837 2.9063601 0.89622885
-2.1615946 2.9004371 0.89977282
-2.160639 2.8949325 0.90265828
-2.1593399 2.8899512 0.90470511
-2.1580434 2.88498 0.9067474
-2.15675 2.8800173 0.90878713
-2.1552267 2.8753984 0.91027266
-2.1535425 2.8710244 0.91136456
-2.1518588 2.8666544 0.9124552
-2.1501772 2.862289 0.91354448
-2.1484065 2.8580558 0.91441917
-2.1464117 2.8541479 0.91475803
-2.1444156 2.8502414 0.91509503
-2.1424217 2.8463361 0.91543388
-2.1404278 2.8424318 0.91577184
-2.1382394 2.8387995 0.9156546
-2.1359575 2.8352962 0.91531843
-2.1336751 2.8317916 0.9149825
-2.1313915 2.8282871 0.91464591
-2.1291013 2.8247888 0.9142952
-2.1265116 2.8216965 0.91325092
-2.1239176 2.8186011 0.91220587
-2.1213233 2.8155024 0.91115963
-2.1187255 2.8124008 0.91011339
-2.1159275 2.8095598 0.90861225
-2.1129534 2.8069427 0.90671283
-2.1099732 2.8043222 0.90481085
-2.1069891 2.8016961 0.90290529
-2.1037793 2.7993538 0.90049493
-2.1002622 2.7973948 0.89739805
-2.096736 2.7954307 0.8942948
-2.0932002 2.7934604 0.8911829
-2.0888677 2.79249 0.88628721
-2.0844266 2.7916296 0.88116908
-2.0797577 2.791028 0.8755607
-2.0738726 2.791923 0.86725342
-2.0675561 2.7933109 0.85801589
-2.0589912 2.7974436 0.843804
-2.1595764 2.9221938 0.88834494
-2.1593494 2.9155247 0.8930316
-2.1586642 2.9095685 0.89659512
-2.1579826 2.9036295 0.90014845
-2.1569834 2.8981826 0.90292537
-2.1556921 2.8931839 0.90498817
-2.1543972 2.8882024 0.90703452
-2.1531041 2.88323 0.90907472
-2.1515262 2.8786852 0.91042912
-2.1498408 2.8743033 0.91152221
-2.1481571 2.8699253 0.91261381
-2.1464751 2.8655524 0.91370404
-2.1446564 2.8613791 0.91446948
-2.1426599 2.8574626 0.91481197
-2.1406641 2.8535483 0.91515392
-2.1386681 2.8496358 0.91549546
-2.1366713 2.8457251 0.91583407
-2.1344268 2.8421621 0.9155907
-2.1321406 2.8386545 0.91525477
-2.1298542 2.8351457 0.91491747
-2.1275666 2.8316362 0.91458011
-2.1252134 2.8282146 0.91409111
-2.1226163 2.8251185 0.91304612
-2.1200187 2.8220196 0.91199988
-2.1174169 2.8189182 0.91095173
-2.1148133 2.8158133 0.90990287
-2.1119342 2.8130684 0.90822929
-2.1089518 2.8104508 0.90632683
-2.1059644 2.8078287 0.90442103
-2.1029711 2.8052018 0.90251184
-2.0996439 2.802999 0.89985281
-2.0961156 2.8010421 0.89675164
-2.0925772 2.7990789 0.89364123
-2.0889332 2.7972345 0.89030522
-2.0844939 2.7963841 0.88519806
-2.0800345 2.7955306 0.88006753
-2.0750439 2.7953184 0.87377071
-2.0692251 2.796109 0.86565465
-2.0624177 2.79809 0.85536987
-2.0529611 2.8033051 0.83924204
-2.1560521 2.9252632 0.88898164
-2.1557162 2.9187539 0.89339405
-2.1550357 2.9127855 0.89696234
-2.1543589 2.9068334 0.90051949
-2.1532989 2.9014702 0.90314645
-2.1520181 2.8964484 0.90523309
-2.1507387 2.8914368 0.90731549
-2.1494498 2.886452 0.90936375
-2.147815 2.8819811 0.91058463
-2.1461291 2.8775914 0.91167933
-2.1444445 2.8732061 0.91277289
-2.1427619 2.8688252 0.91386527
-2.1408951 2.8647125 0.91452032
-2.1388969 2.8607898 0.91486299
-2.1368985 2.8568699 0.91520548
-2.1348999 2.8529501 0.91554821
-2.1328948 2.8490441 0.91586918
-2.130604 2.8455341 0.91552991
-2.1283123 2.8420227 0.91519022
-2.1260219 2.8385105 0.91485143
-2.1237311 2.8349948 0.91451436
-2.1213131 2.83165 0.91388756
-2.1187103 2.8285513 0.91284013
-2.1161065 2.825449 0.91179222
-2.1134994 2.8223438 0.9107424
-2.1108904 2.8192363 0.90969259
-2.1079283 2.8165891 0.90784472
-2.1049376 2.8139706 0.9059394
-2.1019418 2.8113463 0.90402973
-2.0989404 2.8087182 0.90211773
-2.0954947 2.8066578 0.89920998
-2.0919549 2.8047018 0.89610094
-2.0884044 2.8027401 0.89298528
-2.0845609 2.8011367 0.88922387
-2.0801089 2.8002863 0.88411719
-2.0756621 2.7994003 0.87904292
-2.0704439 2.7994568 0.87227476
-2.0645983 2.8002617 0.86413836
-2.0572522 2.8028939 0.85270929
-2.0467029 2.8094382 0.83423615
-2.152473 2.9284101 0.88951099
-2.1520722 2.9219925 0.89375842
-2.1513982 2.9160101 0.89733052
-2.1507256 2.9100461 0.9008922
-2.1496043 2.904767 0.90336847
-2.1483245 2.8997364 0.90545702
-2.1470475 2.8947134 0.90754318
-2.1457727 2.8897004 0.90962368
-2.144094 2.8852873 0.9107399
-2.1424067 2.8808897 0.91183746
-2.140722 2.8764958 0.91293198
-2.1390393 2.872107 0.91402578
-2.1371233 2.8680551 0.91457021
-2.1351221 2.8641274 0.91491407
-2.1331213 2.8601992 0.91525728
-2.1311209 2.8562744 0.91560066
-2.1290669 2.8524261 0.91581625
-2.1267724 2.8489115 0.91547608
-2.1244781 2.8453958 0.9151361
-2.1221819 2.8418784 0.9147957
-2.1198854 2.8383605 0.914455
-2.1174071 2.8350887 0.91369754
-2.1147978 2.8319881 0.9126451
-2.1121848 2.8288853 0.91159075
-2.1095707 2.8257794 0.91053569
-2.1069031 2.8227379 0.90936524
-2.103909 2.8201222 0.90745872
-2.1009102 2.8175013 0.90554953
-2.0979056 2.8148761 0.90363801
-2.0948732 2.8122766 0.9016692
-2.0913365 2.8103209 0.89857548
-2.087791 2.8083575 0.89547718
-2.0842354 2.8063896 0.89236963
-2.0802255 2.8049853 0.88825768
-2.0757797 2.8041105 0.88319534
-2.0713153 2.8032312 0.8781094
-2.0658262 2.803612 0.87077445
-2.059952 2.8044336 0.86261708
-2.0522218 2.8075216 0.85039234
-2.0403976 2.8156159 0.82919258
-2.1488564 2.9316089 0.8899703
-2.1483898 2.9252861 0.89404911
-2.1477513 2.9192436 0.89769995
-2.1470833 2.9132669 0.90126467
-2.1458998 2.9080729 0.90358955
-2.1446221 2.9030321 0.90568143
-2.1433465 2.898 0.90776974
-2.1420295 2.8930407 0.90975153
-2.1403468 2.8886225 0.9108634
-2.1386659 2.8842084 0.91197628
-2.136987 2.8797989 0.9130851
-2.1353056 2.8753986 0.91418648
-2.1333399 2.8714077 0.91462052
-2.1313362 2.8674734 0.91496539
-2.1293333 2.8635399 0.91530925
-2.1273305 2.8596082 0.91565245
-2.1252277 2.855818 0.91576147
-2.1229296 2.8522987 0.91542172
-2.1206312 2.8487785 0.91508055
-2.1183314 2.8452563 0.91473943
-2.1160305 2.8417339 0.91439897
-2.1134965 2.8385265 0.91352564
-2.1108811 2.8354225 0.91247153
-2.108263 2.8323169 0.91141456
-2.1056423 2.8292079 0.91035759
-2.102906 2.8262477 0.90904146
-2.0999031 2.8236303 0.90713179
-2.0968959 2.8210094 0.90521932
-2.0938828 2.8183835 0.90330297
-2.0907497 2.8159022 0.90112531
-2.0872028 2.8139453 0.89802969
-2.0836453 2.8119841 0.8949247
-2.0800791 2.8100166 0.89181167
-2.0758986 2.8088164 0.887344
-2.071435 2.8079484 0.88226944
-2.066952 2.8070765 0.87717253
-2.0611889 2.8077841 0.86926889
-2.0553505 2.8085403 0.86123145
-2.0472569 2.8120584 0.84826398
-2.0345995 2.8211551 0.82532495
-2.1452305 2.9348152 0.89043194
-2.1446831 2.928607 0.89430976
-2.1440542 2.9225452 0.89797515
-2.1434269 2.9165034 0.90162712
-2.1421847 2.9113874 0.903813
-2.140908 2.9063368 0.90590703
-2.1396351 2.9012949 0.9079982
-2.1382735 2.8963923 0.90987456
-2.1365905 2.8919654 0.91098839
-2.1349092 2.8875449 0.91210198
-2.133229 2.8831267 0.9132129
-2.1315491 2.8787165 0.91431934
-2.129544 2.8747725 0.91466707
-2.1275399 2.8708303 0.91501474
-2.1255348 2.86689 0.91535985
-2.1235301 2.8629513 0.91570443
-2.1213784 2.8592203 0.91570783
-2.1190755 2.8556957 0.91536665
-2.1167724 2.8521709 0.91502577
-2.1144688 2.8486445 0.91468459
-2.1121647 2.8451171 0.91434294
-2.1095741 2.8419747 0.91335255
-2.1069529 2.8388684 0.91229653
-2.1043289 2.8357589 0.91123837
-2.1017025 2.8326466 0.9101795
-2.0988955 2.8297689 0.90871739
-2.0958846 2.8271503 0.90680492
-2.092869 2.824527 0.90488857
-2.0898483 2.8218999 0.9029687
-2.0866146 2.8195379 0.90058315
-2.0830557 2.8175833 0.89748079
-2.0794873 2.8156228 0.89437079
-2.0759089 2.8136575 0.89125085
-2.0715554 2.8126626 0.88642621
-2.0670741 2.8118012 0.88134146
-2.0624249 2.8111222 0.87590712
-2.0566316 2.8118484 0.86797577
-2.0506718 2.8127389 0.85971159
-2.0422692 2.8166175 0.8461265
-2.1409667 2.9319372 0.89457089
-2.1403422 2.9258623 0.89824003
-2.1397071 2.9198265 0.90186536
-2.1384449 2.9147339 0.90400183
-2.1371856 2.909651 0.90613359
-2.1359127 2.9045985 0.90822738
-2.1345074 2.8997536 0.90999812
-2.132823 2.8953195 0.91111362
-2.1311407 2.8908899 0.91222763
-2.1294608 2.8864648 0.91334051
-2.1277416 2.8821015 0.91435945
-2.1257336 2.8781512 0.91470808
-2.1237273 2.8742023 0.91505581
-2.1217217 2.870255 0.91540325
-2.1197159 2.866308 0.91575193
-2.1175175 2.8626306 0.91565657
-2.1152105 2.8591039 0.91531235
-2.1129036 2.8555734 0.91497046
-2.1105952 2.8520424 0.91462833
-2.1082642 2.8485408 0.91423637
-2.1056397 2.8454342 0.91317922
-2.1030123 2.8423245 0.91211987
-2.1003823 2.8392119 0.91106147
-2.0977509 2.8360965 0.91000164
-2.094873 2.8333004 0.90839338
-2.0918536 2.8306808 0.90647656
-2.088829 2.8280568 0.90455669
-2.0858002 2.825429 0.90263391
-2.0824654 2.8231852 0.90003902
-2.0788951 2.8212328 0.89693117
-2.0753143 2.8192737 0.89381427
-2.0716748 2.8173723 0.89058125
-2.0672078 2.8165066 0.88553369
-2.0627401 2.8156116 0.88050687
-2.0579078 2.8151474 0.87470007
-2.0520871 2.8158906 0.8667478
-2.0457094 2.8172824 0.85760993
-2.0374196 2.8209965 0.84433293
-2.1372414 2.9352763 0.89483339
-2.1366217 2.9291871 0.89850688
-2.1359432 2.9232097 0.90202421
-2.1346827 2.9181066 0.90416378
-2.133425 2.9130123 0.90629929
-2.13217 2.907928 0.90843081
-2.1307297 2.9031241 0.91012186
-2.1290457 2.8986826 0.91123879
-2.1273634 2.8942449 0.91235477
-2.1256812 2.8898118 0.91346931
-2.1239231 2.8854954 0.9143995
-2.1219134 2.8815391 0.91474795
-2.1199055 2.8775842 0.91509706
-2.1178951 2.8736305 0.91544521
-2.1158876 2.8696775 0.91579366
-2.1136496 2.8660471 0.91561347
-2.1113381 2.8625147 0.91526848
-2.1090264 2.8589816 0.9149242
-2.1067128 2.8554466 0.91457993
-2.1043303 2.852005 0.9140783
-2.1016979 2.8488972 0.91301584
-2.0990632 2.845787 0.91195297
-2.0964253 2.8426731 0.91088766
-2.093786 2.8395565 0.90982282
-2.0908363 2.8368433 0.90806907
-2.0878093 2.8342223 0.90614992
-2.0847781 2.8315966 0.90422809
-2.0817409 2.8289666 0.90230155
-2.0783103 2.8268337 0.89951301
-2.0747361 2.824872 0.89641708
-2.0711524 2.8229053 0.89331162
-2.0673742 2.821166 0.88979489
-2.0629101 2.8202822 0.88478047
-2.0584242 2.8193946 0.87974262
-2.0533743 2.8191891 0.87348759
-2.0475261 2.8199477 0.86551499
-2.0408206 2.8217292 0.85570639
-2.032619 2.8253078 0.84268522
-2.1335044 2.9386241 0.89509618
-2.1328905 2.9325223 0.89877492
-2.1321683 2.9266014 0.902183
-2.1309102 2.9214878 0.90432477
-2.1296549 2.916384 0.90646315
-2.1284013 2.9112895 0.90859771
-2.1269276 2.9065247 0.91021442
-2.1252494 2.902066 0.91134614
-2.1235721 2.8976116 0.91247803
-2.1218925 2.8931689 0.91359711
-2.1200938 2.8889 0.91444027
-2.1180818 2.884937 0.91478848
-2.116071 2.8809757 0.91513807
-2.1140597 2.8770158 0.91548699
-2.1120496 2.8730574 0.9158361
-2.1097691 2.8694737 0.91556889
-2.1074538 2.8659365 0.9152239
-2.1051376 2.8623986 0.9148789
-2.1028206 2.8588586 0.91453397
-2.1003923 2.855469 0.91393811
-2.0977542 2.8523574 0.91287446
-2.0951133 2.8492441 0.91180962
-2.0924699 2.8461275 0.91074264
-2.0898242 2.8430076 0.9096759
-2.0868154 2.8403623 0.90780348
-2.0837805 2.8377399 0.90588069
-2.0807397 2.8351128 0.9039551
-2.0776935 2.8324821 0.90202636
-2.0741785 2.8304479 0.89906615
-2.0705919 2.8284876 0.89596403
-2.0669954 2.8265233 0.89285237
-2.0630791 2.8249485 0.88905114
-2.0585961 2.8240712 0.88402432
-2.0540929 2.82319 0.87897652
-2.048821 2.8232474 0.87227052
-2.043004 2.8239481 0.86440551
-2.0360422 2.8260274 0.85408831
-2.0270503 2.8305619 0.83941185
-2.1291385 2.9358814 0.89901793
-2.1283832 2.9300036 0.90234303
-2.1271267 2.9248798 0.90448785
-2.1258726 2.9197652 0.90662915
-2.1246216 2.9146597 0.90876561
-2.1231146 2.9099362 0.91030455
-2.1214361 2.9054697 0.91143817
-2.1197574 2.9010079 0.91257107
-2.1180818 2.896549 0.9137035
-2.1162515 2.8923168 0.9144761
-2.1142385 2.8883452 0.91482973
-2.1122251 2.8843772 0.91517985
-2.1102118 2.8804114 0.91552871
-2.1081958 2.8764508 0.91587025
-2.1058779 2.8729093 0.9155255
-2.1035578 2.8693683 0.91517979
-2.1012383 2.8658257 0.91483432
-2.0989168 2.8622813 0.9144882
-2.0964417 2.8589437 0.91379863
-2.0937972 2.85583 0.9127326
-2.0911508 2.8527131 0.91166514
-2.0885024 2.8495924 0.91059792
-2.0858183 2.8465123 0.9094575
-2.0827796 2.8438931 0.90753567
-2.0797365 2.8412688 0.90561008
-2.0766885 2.8386402 0.90368158
-2.0736203 2.8360267 0.9017176
-2.0700319 2.834074 0.89861739
-2.0664334 2.8321159 0.89550978
-2.0628259 2.8301523 0.89239264
-2.0587668 2.8287442 0.88830292
-2.0542669 2.8278744 0.88326699
-2.0497506 2.8269939 0.8782168
-2.0443392 2.8272095 0.87124282
-2.0385325 2.8278787 0.86343998
-2.0312438 2.8303444 0.85246325
-2.0217609 2.8354633 0.83679056
-2.1253395 2.9393041 0.89917624
-2.1245735 2.9334362 0.90247011
-2.123333 2.9282801 0.90465051
-2.1220806 2.9231563 0.90679413
-2.1208313 2.9180408 0.90893376
-2.1192901 2.9133577 0.91039544
-2.1176107 2.9088826 0.91153073
-2.1159332 2.904412 0.91266549
-2.1142557 2.8999462 0.91379839
-2.1123948 2.8957479 0.91450661
-2.1103797 2.8917706 0.91486001
-2.1083655 2.8877938 0.91521347
-2.1063504 2.8838198 0.91556543
-2.1042984 2.8799007 0.91582948
-2.1019742 2.8763568 0.91548115
-2.0996499 2.8728101 0.9151352
-2.0973268 2.8692627 0.91478878
-2.0950012 2.8657138 0.9144429
-2.0924788 2.8624291 0.91365772
-2.089829 2.8593116 0.91259027
-2.0871763 2.8561912 0.91152138
-2.0845215 2.8530686 0.91045153
-2.0817792 2.8500545 0.90919429
-2.0787325 2.847434 0.90726817
-2.0756807 2.8448088 0.90533942
-2.0726242 2.8421798 0.90340739
-2.0694726 2.8396628 0.90127432
-2.0658717 2.8377113 0.89816862
-2.0622618 2.8357556 0.89505434
-2.0586414 2.8337934 0.891931
-2.0544548 2.8325355 0.88758492
-2.0499699 2.83163 0.88261032
-2.0454652 2.8307202 0.87761253
-2.0398774 2.8311403 0.87029117
-2.034045 2.8318245 0.86246949
-2.0264966 2.8345914 0.85098559
-2.0165226 2.8402917 0.83432692
-2.1215301 2.9427366 0.89933604
-2.1207383 2.9368985 0.90256482
-2.1195009 2.9317303 0.90475088
-2.1182659 2.9265735 0.90693152
-2.1170299 2.9214306 0.90910304
-2.1154547 2.9167879 0.91048628
-2.1137748 2.9123049 0.911623
-2.1120958 2.9078269 0.91275901
-2.1104188 2.9033527 0.913894
-2.1085277 2.8991885 0.91453594
-2.1065099 2.8952043 0.91489011
-2.1044922 2.8912227 0.91524351
-2.1024756 2.8872416 0.91559625
-2.1003914 2.8833561 0.91579658
-2.0980632 2.8798079 0.91544682
-2.0957351 2.8762574 0.91509825
-2.093406 2.8727064 0.91475087
-2.0910759 2.8691533 0.91440237
-2.0885096 2.8659184 0.91352731
-2.0858521 2.8627994 0.91245627
-2.0831928 2.8596783 0.91138285
-2.0805302 2.8565531 0.91030848
-2.0777283 2.8536067 0.90893221
-2.0746748 2.8509839 0.90700513
-2.071615 2.8483562 0.90507549
-2.0685515 2.8457236 0.90314245
-2.0653205 2.8432965 0.90085393
-2.0617185 2.8413358 0.89776158
-2.0581059 2.8393695 0.89466184
-2.0544834 2.8373976 0.89155257
-2.050189 2.836262 0.88699836
-2.0456867 2.8353629 0.88201368
-2.0411651 2.8344603 0.8770057
-2.0353987 2.8350866 0.86933613
-2.0295539 2.8357661 0.86152953
-2.0218723 2.8386796 0.84980786
-2.0112934 2.8451002 0.83192617
-2.1139014 2.9874086 0.86504191
-2.1168921 2.9403706 0.90265995
-2.1156561 2.9351923 0.90484917
-2.1144245 2.9300244 0.90703404
-2.1131928 2.9248662 0.9092139
-2.1116009 2.920239 0.91056144
-2.109926 2.9157393 0.91171336
-2.1082482 2.9112515 0.91285366
-2.1065714 2.906769 0.9139899
-2.1046476 2.9026396 0.91456622
-2.102628 2.8986499 0.91492015
-2.1006088 2.8946609 0.91527426
-2.0985892 2.8906736 0.91562819
-2.0964735 2.8868222 0.91576272
-2.0941405 2.8832688 0.91541344
-2.0918095 2.8797133 0.91506463
-2.0894756 2.876158 0.91471535
-2.0871418 2.8725998 0.91436613
-2.0845377 2.8694055 0.91341931
-2.0818741 2.8662832 0.91234565
-2.0792081 2.8631589 0.91127074
-2.07654 2.8600314 0.91019469
-2.0736907 2.8571351 0.90872639
-2.0706291 2.8545113 0.90679651
-2.0675616 2.8518834 0.90486372
-2.0644884 2.8492496 0.90292686
-2.0611906 2.8468981 0.90050721
-2.0575755 2.844939 0.89740866
-2.0539522 2.8429744 0.89430273
-2.0503178 2.8410046 0.89118797
-2.0459082 2.8400013 0.88641006
-2.0413885 2.8391089 0.88141495
-2.0367496 2.8383379 0.8761816
-2.0309458 2.8389935 0.86846864
-2.0251546 2.8395889 0.86081606
-2.0172284 2.8427846 0.8486256
-2.0064456 2.8494306 0.83038509
-2.1097825 2.9913101 0.86463368
-2.1130359 2.9438531 0.9027558
-2.1118019 2.9386635 0.90494859
-2.1105704 2.9334848 0.90713561
-2.1093416 2.9283159 0.9093191
-2.1077285 2.9237127 0.91061771
-2.1060529 2.9192038 0.91177273
-2.1043789 2.9147012 0.91292351
-2.1027062 2.9102025 0.91407502
-2.1007562 2.9061012 0.9145956
-2.0987346 2.9021044 0.91495091
-2.0967126 2.8981087 0.91530526
-2.0946915 2.8941152 0.9156599
-2.0925436 2.8902988 0.91572887
-2.0902078 2.8867402 0.91537958
-2.0878711 2.8831797 0.9150303
-2.0855336 2.8796196 0.91468054
-2.0831954 2.8760576 0.91433054
-2.0805528 2.8729024 0.91331077
-2.0778837 2.8697774 0.91223568
-2.0752115 2.8666499 0.91115916
-2.0725377 2.8635185 0.91008192
-2.0696409 2.8606756 0.90851992
-2.0665696 2.8580511 0.90658712
-2.0634944 2.8554208 0.90465152
-2.0604138 2.8527868 0.90271157
-2.0570464 2.8505113 0.90015835
-2.0534203 2.8485544 0.89705503
-2.0497842 2.846591 0.89394313
-2.0461292 2.8446355 0.89080238
-2.0416124 2.8437531 0.88581967
-2.0370812 2.8428602 0.88082665
-2.0323324 2.8422115 0.87538636
-2.0265546 2.8428166 0.86776853
-2.0206583 2.8435271 0.85992467
-2.0125937 2.8468719 0.84749556
-2.0015762 2.8537805 0.82883561
-2.105649 2.9952252 0.8642236
-2.1091664 2.9473469 0.90285051
-2.1079357 2.9421461 0.9050473
-2.1067069 2.9369555 0.9072389
-2.1054797 2.9317753 0.90942425
-2.1038432 2.9271958 0.91067541
-2.1021683 2.9226787 0.9118312
-2.1004939 2.9181671 0.91298431
-2.0988214 2.9136603 0.91413772
-2.0968497 2.9095793 0.91461468
-2.0948262 2.9055743 0.91497332
-2.0928042 2.9015708 0.91533124
-2.0907812 2.8975692 0.91568899
-2.0886023 2.8937855 0.91569597
-2.086262 2.8902214 0.91534668
-2.0839214 2.8866575 0.91499597
-2.0815797 2.8830917 0.91464549
-2.0792291 2.8795359 0.91427761
-2.0765564 2.8764105 0.91320109
-2.0738814 2.8732822 0.9121241
-2.0712037 2.8701518 0.91104639
-2.0685225 2.8670177 0.90996748
-2.0655777 2.8642268 0.90831363
-2.0624983 2.8616006 0.90637708
-2.0594149 2.8589702 0.9044376
-2.0563254 2.8563342 0.90249503
-2.0528884 2.8541374 0.89980853
-2.0492508 2.8521807 0.89669949
-2.0456038 2.8502197 0.89358211
-2.0418484 2.8483772 0.890248
-2.0373483 2.8474588 0.8853277
-2.0328286 2.8465362 0.88038599
-2.027951 2.8460343 0.87469912
-2.0221484 2.8466539 0.86706483
-2.0160184 2.847636 0.85876489
-2.0081115 2.850765 0.84672463
-1.9967097 2.8581209 0.82732904
-2.1015015 2.9991531 0.8638106
-2.104044 2.9456587 0.90511215
-2.1028316 2.9404361 0.90734071
-2.1016068 2.9352455 0.90952986
-2.0999482 2.9306881 0.91073167
-2.0982718 2.9261637 0.9118889
-2.0965965 2.9216435 0.91304463
-2.0949242 2.9171286 0.91419899
-2.0929313 2.9130678 0.91463375
-2.0909059 2.9090571 0.91499239
-2.0888798 2.9050467 0.91535151
-2.0868559 2.9010386 0.91570997
-2.0846534 2.8972757 0.9156726
-2.0823083 2.8937082 0.91532165
-2.079963 2.8901401 0.91496903
-2.0776162 2.8865716 0.91461569
-2.0752318 2.8830514 0.91418105
-2.0725522 2.8799243 0.91310143
-2.0698698 2.8767943 0.91202134
-2.0671854 2.873661 0.91093975
-2.0644977 2.8705251 0.9098568
-2.0615051 2.8677847 0.90811479
-2.0584197 2.865155 0.90617889
-2.0553298 2.8625202 0.90424061
-2.052233 2.8598821 0.90229756
-2.0487397 2.8577449 0.89950591
-2.0451 2.8557782 0.8964138
-2.0414519 2.853806 0.89331216
-2.0376155 2.8520532 0.88982421
-2.0330975 2.8511412 0.88489491
-2.0285623 2.8502247 0.87994409
-2.0235531 2.8498716 0.87400925
-2.0177264 2.8505039 0.86635971
-2.0115213 2.8515618 0.85793954
-2.0036128 2.8546717 0.84595031
-1.9921734 2.8620484 0.82655662
