# .PCD v0.7 - Point Cloud Data file format
VERSION 0.7
FIELDS x y z
SIZE 4 4 4
TYPE F F F
COUNT 1 1 1
WIDTH 1471
HEIGHT 1
VIEWPOINT 0 0 0 1 0 0 0
POINTS 1471
DATA ascii
-0.41601291 1.9729388 0.85950851
-0.41781941 1.9672244 0.86348921
-0.41961643 1.9615319 0.8674528
-0.42120084 1.9558927 0.87122631
-0.42225131 1.9503611 0.87453496
-0.42356378 1.944802 0.87806141
-0.4268727 1.9389336 0.88328278
-0.42880678 1.9333107 0.88732195
-0.43073517 1.9277072 0.89134735
-0.43225214 1.9221879 0.89501494
-0.43296322 1.9168098 0.89798999
-0.43367147 1.911446 0.90095621
-0.43384099 1.9061786 0.9034605
-0.43342254 1.9010086 0.9054606
-0.43300405 1.8958488 0.90745664
-0.43194678 1.8907915 0.90890986
-0.43040016 1.8858099 0.90994549
-0.42885378 1.880833 0.91098064
-0.42644072 1.8759825 0.91128224
-0.423668 1.8711817 0.91128135
-0.42087546 1.8663841 0.91126502
-0.41665205 1.8617783 0.91004544
-0.41242462 1.8571666 0.9088257
-0.40708736 1.8526927 0.90667814
-0.3536239 2.0523286 0.78302354
-0.3674942 2.0439208 0.79757386
-0.39738962 2.0324466 0.8259533
-0.40137658 2.026125 0.83188772
-0.40534422 2.0198343 0.83779258
-0.40911099 2.0136096 0.84351313
-0.41186139 2.0076032 0.84834474
-0.41459939 2.001622 0.85315639
-0.41732717 1.9956656 0.85794777
-0.41441444 1.9907537 0.85788798
-0.40850297 1.9863806 0.85525632
-0.4104425 1.9806033 0.85935605
-0.41225788 1.9748656 0.86334038
-0.41406748 1.9691484 0.8673116
-0.41568932 1.9634818 0.87111461
-0.41674861 1.9579293 0.87442905
-0.41780531 1.9523917 0.8777346
-0.41885912 1.9468699 0.88103116
-0.41990101 1.9413663 0.88431025
-0.4218511 1.9357308 0.88835323
-0.42379451 1.9301153 0.89238268
-0.42501116 1.9246333 0.89578795
-0.42573223 1.9192438 0.8987661
-0.42645121 1.9138691 0.90173662
-0.42632973 1.9086348 0.90399021
-0.42591694 1.9034555 0.9059934
-0.42550465 1.8982841 0.9079935
-0.42414325 1.8932616 0.90918893
-0.4225978 1.8882703 0.91022718
-0.42105287 1.883283 0.91126406
-0.41829586 1.8784708 0.91128057
-0.41551715 1.8736619 0.91127902
-0.41231152 1.8689113 0.91091901
-0.40807551 1.8642966 0.90969801
-0.40383399 1.859677 0.9084754
-0.3979373 1.8552663 0.90587115
-0.39177817 1.850879 0.9030534
-0.38335317 1.8467638 0.89835423
-0.36131057 2.0520217 0.79698569
-0.37047049 2.0445626 0.8074159
-0.39558408 2.034024 0.83157861
-0.39957342 2.0277011 0.83749586
-0.40342024 2.0214341 0.84327817
-0.40618828 2.0153987 0.8481198
-0.40894392 2.0093892 0.85294265
-0.4116855 2.0034049 0.85774094
-0.41405645 1.9975123 0.862212
-0.41588536 1.9917388 0.86621064
-0.40753576 1.9878147 0.86149907
-0.40667388 1.9825369 0.86319196
-0.40849665 1.9767959 0.86717105
-0.41015515 1.9711013 0.87100202
-0.41122493 1.9655263 0.87432355
-0.4122926 1.9599667 0.87763584
-0.41335115 1.9544245 0.880934
-0.41418809 1.9489346 0.88403738
-0.41456977 1.9435341 0.88674742
-0.41494903 1.9381455 0.88945061
-0.41683382 1.9325303 0.89342207
-0.41774654 1.9270866 0.89656359
-0.41847858 1.9216858 0.89954555
-0.41920114 1.9162999 0.90251321
-0.41879338 1.9111005 0.90452307
-0.41838682 1.9059098 0.90652889
-0.41785988 1.9007459 0.90842956
-0.4163135 1.8957398 0.90947044
-0.41476783 1.8907393 0.91050965
-0.41290465 1.8857884 0.91128027
-0.41011998 1.8809701 0.91127801
-0.4073365 1.8761511 0.91127717
-0.40371209 1.8714476 0.91057324
-0.39946249 1.8668255 0.90934962
-0.39491251 1.8622361 0.90787822
-0.38874409 1.857852 0.90506005
-0.3823075 1.8534901 0.902026
-0.37327805 1.8494424 0.89684224
-0.36191046 1.8456634 0.88972783
-0.36431143 2.0526447 0.80685347
-0.37062877 2.0457587 0.81480002
-0.37646627 2.0390043 0.82231611
-0.3977083 2.0292892 0.84304339
-0.40049085 2.023226 0.84789342
-0.40326056 2.0171895 0.8527227
-0.40601882 2.0111773 0.85753101
-0.40844363 2.00525 0.86204547
-0.41028616 1.9994516 0.86605126
-0.4121215 1.9936731 0.87004346
-0.41280586 1.9881223 0.87304544
-0.40290359 1.9844725 0.86702859
-0.40460026 1.978749 0.87088889
-0.40567932 1.9731525 0.87421572
-0.4067508 1.967572 0.87753034
-0.40781936 1.9620079 0.88083595
-0.40868515 1.9564943 0.8839612
-0.4090732 1.9510741 0.88667631
-0.40946037 1.9456674 0.88938498
-0.40984634 1.9402725 0.89208812
-0.41003945 1.9349221 0.89462173
-0.41046071 1.9295474 0.89734203
-0.41120303 1.9241351 0.90032685
-0.41163355 1.9187839 0.9030441
-0.41123223 1.9135739 0.9050566
-0.41083139 1.9083728 0.90706575
-0.41000032 1.9032437 0.90870982
-0.40845442 1.8982282 0.90975118
-0.40690991 1.8932165 0.91079324
-0.40470138 1.8883057 0.91127652
-0.40191266 1.8834785 0.91127497
-0.39912465 1.8786505 0.91127479
-0.39507809 1.8739954 0.9102267
-0.39081487 1.8693644 0.90899932
-0.38570356 1.8648406 0.90706974
-0.37950939 1.8604504 0.9042449
-0.37222785 1.8561875 0.90052378
-0.36315095 1.8521358 0.8953228
-0.35022995 1.8485421 0.88695031
-0.32798022 1.8460635 0.87088042
-0.36465606 2.0537977 0.81440693
-0.37052578 2.047004 0.8219409
-0.37513193 2.0404944 0.82837689
-0.39476675 2.0310855 0.8476637
-0.39755431 2.0250194 0.85250276
-0.40032998 2.0189798 0.85732085
-0.4028089 2.0130177 0.86187607
-0.40466404 2.0071945 0.86589116
-0.40651345 2.0013919 0.86989194
-0.40835646 1.9956092 0.87387818
-0.41006601 1.989869 0.87774301
-0.40650043 1.985091 0.87712252
-0.40010583 1.9808098 0.87410355
-0.40118754 1.9752083 0.87742513
-0.40226683 1.9696219 0.88073593
-0.40316096 1.9640827 0.88388461
-0.40355572 1.9586436 0.8866052
-0.40395099 1.9532169 0.88931882
-0.40434003 1.9478043 0.89202392
-0.40455246 1.9424323 0.8945725
-0.40427482 1.9371521 0.89670473
-0.4039984 1.9318813 0.89883363
-0.40390456 1.9265916 0.90111107
-0.40404096 1.9212765 0.90357673
-0.40364584 1.9160548 0.90559232
-0.40325168 1.9108429 0.90760458
-0.40211335 1.9057504 0.90899128
-0.40056792 1.9007243 0.91003478
-0.39902437 1.8957042 0.91107732
-0.39646852 1.8908321 0.91127491
-0.39367527 1.8859959 0.91127402
-0.39068013 1.8811873 0.91110551
-0.38640833 1.8765528 0.90987736
-0.3821308 1.8719145 0.90864778
-0.37645385 1.8674566 0.90626007
-0.37023374 1.8630596 0.90342689
-0.362095 1.8588979 0.89901388
-0.35277519 1.8548681 0.89363354
-0.33847696 1.8514392 0.88415563
-0.36455876 2.0550363 0.82156426
-0.36928108 2.0484738 0.82808989
-0.37332141 2.0420773 0.83402002
-0.3773396 2.0357134 0.83991921
-0.39461827 2.0268126 0.85710996
-0.39715126 2.020817 0.86170691
-0.39902046 2.0149686 0.86572963
-0.40088278 2.00914 0.86973757
-0.40273482 2.0033338 0.87372857
-0.4044832 1.997565 0.8776235
-0.40557206 1.9919339 0.88095218
-0.40665948 1.9863189 0.8842721
-0.40075541 1.9819598 0.88167357
-0.3966924 1.9772648 0.88063693
-0.39761534 1.9717019 0.8838073
-0.39801726 1.9662426 0.88653332
-0.39841348 1.960797 0.88924819
-0.39880919 1.9553653 0.89195657
-0.39904404 1.9499725 0.89452428
-0.39877164 1.944674 0.89666104
-0.39849925 1.9393858 0.8987937
-0.39822757 1.9341077 0.90092117
-0.39776808 1.9288691 0.90288931
-0.39678779 1.9237207 0.90441716
-0.39603418 1.9185447 0.90613061
-0.39564669 1.9133216 0.90814573
-0.39419824 1.9082665 0.90927321
-0.39265397 1.9032305 0.91031766
-0.39100391 1.8982152 0.91127431
-0.38820398 1.8933687 0.911273
-0.38540524 1.8885231 0.91127211
-0.38198915 1.8837637 0.91075873
-0.37770304 1.8791211 0.90952748
-0.37339219 1.8744768 0.90827906
-0.36716107 1.8700849 0.90544492
-0.36091417 1.8656802 0.90260476
-0.35190922 1.861623 0.8974961
-0.34104457 1.8577809 0.89086533
-0.36340439 2.0564849 0.82780051
-0.36746693 2.0500553 0.83374238
-0.37150824 2.0436583 0.83965415
-0.37447503 2.0375013 0.84463942
-0.39147174 2.0286462 0.86153656
-0.3933512 2.0227735 0.86556524
-0.39522299 2.0169208 0.86957842
-0.3970896 2.0110888 0.87357801
-0.39887753 2.0052907 0.87750322
-0.39997733 1.9996381 0.88083881
-0.40107501 1.994001 0.88416469
-0.40216768 1.9883803 0.88748032
-0.40325892 1.9827769 0.8907873
-0.39519745 1.9787958 0.88638246
-0.39245018 1.9738717 0.88645595
-0.39285448 1.9684064 0.88917559
-0.39325735 1.9629548 0.89188975
-0.39351314 1.9575405 0.89447391
-0.39324555 1.9522253 0.8966161
-0.39297792 1.9469193 0.89875168
-0.39270625 1.9416252 0.90088052
-0.39226392 1.9363685 0.90286225
-0.39128479 1.9312046 0.9043923
-0.39030784 1.9260488 0.90592045
-0.38933253 1.920899 0.90744734
-0.38800305 1.9158105 0.90867686
-0.38625476 1.9107908 0.90955579
-0.38471147 1.9057449 0.91060287
-0.38271362 1.9007701 0.91127098
-0.3799094 1.8959149 0.91127014
-0.37710494 1.8910595 0.91126931
-0.37326077 1.88635 0.91040939
-0.36896133 1.8817004 0.90917528
-0.36408335 1.8771237 0.90746677
-0.35782695 1.8727233 0.90462691
-0.35084733 1.8684071 0.9011972
-0.34167221 1.8643615 0.89597017
-0.32497296 1.8612623 0.88457477
-0.36158788 2.0580668 0.83346444
-0.36565301 2.0516362 0.83938909
-0.36869133 2.0454383 0.84442919
-0.37151942 2.0393057 0.84927994
-0.37433156 2.0332 0.85410804
-0.38954252 2.0247324 0.8694188
-0.39142194 2.0188754 0.87342626
-0.39325017 2.013047 0.87738341
-0.39436093 2.0073709 0.88072503
-0.39546791 2.0017121 0.88405752
-0.39657247 1.9960697 0.88738054
-0.39766753 1.9904443 0.89068919
-0.39834499 1.9849091 0.89363945
-0.39875141 1.9794366 0.89635623
-0.39059559 1.9754674 0.8918891
-0.38768479 1.9705743 0.89182287
-0.38796279 1.965138 0.89442563
-0.38769871 1.959806 0.89656955
-0.38743111 1.9544839 0.89870673
-0.38716349 1.9491723 0.90083945
-0.38673687 1.9438961 0.90283406
-0.38576108 1.9387175 0.90436882
-0.38478556 1.9335458 0.90589958
-0.38380882 1.9283819 0.90742749
-0.3824898 1.9232781 0.90866703
-0.38069981 1.9182525 0.90951425
-0.3789129 1.9132298 0.91036123
-0.37712458 1.9082112 0.91120678
-0.37439209 1.9033353 0.91126937
-0.37158218 1.8984704 0.91126847
-0.36877269 1.8936067 0.91126764
-0.36449757 1.8889484 0.91005999
-0.36018309 1.8842902 0.9088223
-0.35473257 1.8797822 0.90665281
-0.34844896 1.8753756 0.90380478
-0.33944616 1.8713194 0.89872992
-0.31930783 1.868701 0.88454223
-0.36288401 2.0534084 0.84421688
-0.36572593 2.0472467 0.8490755
-0.36855641 2.0411122 0.85391432
-0.37083107 2.0351088 0.8582716
-0.38573191 2.0266924 0.87327451
-0.3876009 2.0208337 0.87726218
-0.38872188 2.0151355 0.88061118
-0.38983721 2.0094545 0.88394773
-0.39094701 2.0037904 0.88727289
-0.39205375 1.9981425 0.890589
-0.39275861 1.9925829 0.89356184
-0.39317364 1.9870906 0.89628386
-0.39358747 1.9816105 0.89900088
-0.39400035 1.9761436 0.90171069
-0.38606688 1.9721303 0.89744604
-0.38212472 1.9674158 0.89651984
-0.38186163 1.9620765 0.89866114
-0.38159996 1.9567475 0.90079761
-0.38118955 1.9514527 0.90280771
-0.38021544 1.9462593 0.90434492
-0.37923965 1.9410728 0.90587634
-0.37826315 1.9358938 0.90740567
-0.37695417 1.930775 0.90865594
-0.37516344 1.925737 0.90950507
-0.37337416 1.9207019 0.91035324
-0.37158275 1.9156713 0.91119879
-0.36885312 1.9107844 0.91126806
-0.3660377 1.90591 0.91126722
-0.36322272 1.9010365 0.91126633
-0.35916114 1.8963417 0.91024113
-0.35490102 1.8916693 0.90905422
-0.34976655 1.8871137 0.90715283
-0.34311756 1.882758 0.90401381
-0.33382443 1.8787458 0.8987174
-0.31363007 1.8761667 0.88451564
-0.35990956 2.0552201 0.84887052
-0.36275768 2.0490565 0.85371888
-0.36508381 2.0430188 0.85811627
-0.36699566 2.0370834 0.86215544
-0.36889896 2.0311689 0.86618125
-0.38305593 2.0229316 0.88049233
-0.38417909 2.0172276 0.88383365
-0.3853001 2.0115411 0.88716692
-0.38641685 2.0058706 0.89048851
-0.38715076 2.0002878 0.89348406
-0.38757366 1.9947746 0.89621246
-0.38799536 1.9892739 0.89893401
-0.38841584 1.9837875 0.90164936
-0.38883016 1.9783154 0.90435463
-0.38859686 1.9729664 0.90651381
-0.38262388 1.9686116 0.9038974
-0.37601402 1.964352 0.90075582
-0.37562078 1.9590378 0.90278023
-0.37464523 1.9538306 0.90431809
-0.37366995 1.9486297 0.90585196
-0.37269536 1.9434355 0.90738362
-0.37139684 1.9383005 0.90864468
-0.36960518 1.9332491 0.909495
-0.36781207 1.9282023 0.91034365
-0.36601967 1.9231595 0.91118991
-0.3632929 1.9182616 0.91126722
-0.36047271 1.9133788 0.91126639
-0.3576518 1.9084948 0.91126549
-0.35358542 1.9037935 0.9102422
-0.34931412 1.8991172 0.90905297
-0.344172 1.8945581 0.90715367
-0.33750251 1.8902035 0.90400964
-0.32818124 1.8862009 0.89870441
-0.30793139 1.8836607 0.88449138
-0.35693657 2.0570323 0.85352254
-0.35931462 2.0509601 0.85796046
-0.36123577 2.0449996 0.86200559
-0.36315027 2.0390601 0.86603498
-0.36505809 2.0331419 0.87005126
-0.37849978 2.0250313 0.88371956
-0.37963006 2.0193233 0.88705903
-0.38075751 2.0136306 0.89038801
-0.38152102 2.0080214 0.89340597
-0.38195151 2.0024879 0.8961392
-0.3823787 1.9969689 0.89886594
-0.38280159 1.9914625 0.90158248
-0.38322353 1.9859698 0.90429252
-0.38301143 1.9806018 0.90646982
-0.38275644 1.9752518 0.90860707
-0.38250288 1.9699113 0.91074145
-0.37918806 1.9651003 0.91033632
-0.36905244 1.9614307 0.90429038
-0.36807948 1.9562148 0.90582681
-0.36710587 1.9510061 0.90736163
-0.36581877 1.945855 0.90863335
-0.36402449 1.9407917 0.90948415
-0.36222944 1.9357319 0.91033447
-0.36043563 1.9306761 0.9111824
-0.35771149 1.9257675 0.91126645
-0.35488579 1.920875 0.91126555
-0.35205916 1.915983 0.911264
-0.34798852 1.9112747 0.91024309
-0.34370884 1.9065928 0.90905499
-0.33855435 1.9020307 0.90715355
-0.33187175 1.8976768 0.9040091
-0.32251427 1.8936845 0.89868999
-0.30220786 1.891185 0.88446456
-0.27261299 1.8898865 0.86270911
-0.35545039 2.0529478 0.86185068
-0.35737869 2.0469832 0.86588943
-0.35930106 2.041039 0.86991382
-0.36051813 2.0352507 0.87334055
-0.36165938 2.0294936 0.87669736
-0.3750765 2.0214205 0.89028704
-0.37586954 2.0157857 0.89332789
-0.37630317 2.0102332 0.89606375
-0.37673488 2.0046942 0.89879239
-0.37716585 1.9991685 0.90151417
-0.37759614 1.9936547 0.90422976
-0.37740287 1.9882668 0.90642375
-0.37715408 1.982898 0.90856713
-0.37690407 1.9775404 0.91070342
-0.37665457 1.972193 0.91283685
-0.37614834 1.966899 0.91475368
-0.37517923 1.9616926 0.9162854
-0.36637959 1.957794 0.91136271
-0.360219 1.9534386 0.90862179
-0.35842091 1.9483634 0.90947354
-0.35662538 1.9432905 0.91032481
-0.35482919 1.9382218 0.9111737
-0.35210836 1.9333036 0.91126418
-0.34927744 1.9284011 0.91126376
-0.34644604 1.923499 0.91126293
-0.34237108 1.9187843 0.9102456
-0.33808187 1.9140961 0.90905583
-0.33291522 1.9095316 0.90715295
-0.32621926 1.90518 0.90400821
-0.31683722 1.9011959 0.8986851
-0.2964648 1.898737 0.88443869
-0.27908811 1.8957944 0.87265444
-0.27501765 1.8909719 0.8716867
-0.35158521 2.0549374 0.8657431
-0.35352066 2.0489671 0.86977607
-0.35477468 2.0431504 0.87323117
-0.35592452 2.0373712 0.87659353
-0.35706982 2.0316093 0.87994373
-0.35818204 2.0258689 0.88325959
-0.37062934 2.0180087 0.89598423
-0.37106961 2.0124495 0.89871836
-0.37150845 2.0069032 0.90144634
-0.37194589 2.00137 0.90416813
-0.37177309 1.995961 0.90637785
-0.37152812 1.9905752 0.90852433
-0.37128195 1.985199 0.91066468
-0.3710334 1.979835 0.91279954
-0.37054339 1.9745225 0.91473073
-0.36957523 1.9693005 0.91626406
-0.3686097 1.964085 0.91779578
-0.36764559 1.9588776 0.91932648
-0.3641308 1.9540968 0.91876066
-0.35505152 1.9502188 0.91363621
-0.34920129 1.9457974 0.91116619
-0.34648404 1.9408674 0.91126239
-0.34364787 1.9359556 0.91126221
-0.34081024 1.9310445 0.91126066
-0.33673292 1.9263228 0.9102481
-0.3324337 1.9216291 0.90905762
-0.32725585 1.9170619 0.90715402
-0.32054368 1.9127113 0.90400785
-0.31114042 1.908736 0.89868212
-0.29106978 1.9062656 0.88471377
-0.28651616 1.9015352 0.88334823
-0.28213847 1.8967725 0.88212955
-0.27775672 1.8920051 0.88090855
-0.34900334 2.0510826 0.87311685
-0.35016319 2.0452812 0.87648398
-0.35131875 2.0394959 0.87984085
-0.35246095 2.0337293 0.88318098
-0.3529084 2.0281119 0.88593543
-0.3533546 2.0225079 0.88868511
-0.36582863 2.0146689 0.90137851
-0.36627322 2.0091159 0.90410554
-0.36612093 2.0036855 0.90633291
-0.36587882 1.9982818 0.9084813
-0.36563453 1.9928899 0.91062284
-0.36539099 1.9875067 0.91276151
-0.36491501 1.9821757 0.91470534
-0.36394975 1.976938 0.91624248
-0.36298609 1.9717076 0.91777778
-0.36202368 1.9664843 0.91931087
-0.3610591 1.9612694 0.92083925
-0.35930458 1.9561911 0.92171723
-0.35751507 1.9511235 0.92256683
-0.35346919 1.9464242 0.92157191
-0.3450821 1.9424107 0.91703892
-0.33708325 1.938315 0.91283196
-0.33107331 1.93389 0.91025203
-0.32676357 1.9291919 0.90905941
-0.32158023 1.9246209 0.90716034
-0.31484783 1.9202715 0.90400773
-0.30542216 1.9163061 0.89867866
-0.29983336 1.9117556 0.89646834
-0.29488885 1.907102 0.89478248
-0.29008213 1.9024208 0.89321113
-0.28527039 1.8977332 0.89163882
-0.34554359 2.0474141 0.87973911
-0.34670702 2.0416224 0.88309264
-0.34717208 2.0359824 0.88586235
-0.34762496 2.0303578 0.88861609
-0.34807312 2.0247486 0.89135903
-0.34849432 2.0191569 0.89407629
-0.360443 2.0114412 0.90628368
-0.36020327 2.0060201 0.90843445
-0.35996446 2.0006099 0.91058123
-0.35972521 1.9952092 0.91272372
-0.35926595 1.9898582 0.91468018
-0.35830182 1.9846059 0.91622019
-0.3573401 1.9793605 0.91775811
-0.35637647 1.9741218 0.91929168
-0.35541332 1.9688911 0.92082244
-0.35366547 1.9637994 0.92170972
-0.35187477 1.9587188 0.92256004
-0.35008544 1.953642 0.92340988
-0.34829569 1.94857 0.9242571
-0.34552574 1.943658 0.92430633
-0.34269434 1.9387559 0.92430544
-0.33606467 1.9344466 0.9212237
-0.32910317 1.9301729 0.91787839
-0.32212165 1.9258866 0.91452479
-0.31602708 1.9214507 0.91189474
-0.30992606 1.9170043 0.90926516
-0.30444905 1.9124529 0.90714431
-0.29907504 1.9078778 0.90511072
-0.29043356 1.9037583 0.90045035
-0.34092066 2.0495481 0.88299644
-0.34141025 2.0438843 0.88578588
-0.34186769 2.0382404 0.888542
-0.34232199 2.0326097 0.89129072
-0.34276849 2.0269945 0.89402562
-0.34252945 2.021522 0.8961919
-0.34229016 2.0160587 0.89835417
-0.35427222 2.0083597 0.9105382
-0.35403773 2.0029414 0.91268522
-0.35359418 1.9975719 0.91465551
-0.35263222 1.9923036 0.91619885
-0.35166931 1.9870428 0.91773677
-0.35070688 1.9817894 0.91927248
-0.34974512 1.9765428 0.92080659
-0.34800491 1.9714365 0.92170197
-0.3462123 1.9663433 0.92255348
-0.34442058 1.9612539 0.92340428
-0.34262845 1.9561692 0.92425245
-0.33985826 1.9512472 0.92430574
-0.33702138 1.9463356 0.92430484
-0.33418378 1.9414243 0.92430329
-0.33069831 1.9366139 0.92377794
-0.32638642 1.9319296 0.92258579
-0.32206932 1.9272389 0.92139268
-0.31633323 1.9227575 0.91905648
-0.30956623 1.9184178 0.915896
-0.30032596 1.9144261 0.9107517
-0.28438514 1.9113804 0.9002322
-0.3360863 2.0461538 0.88846606
-0.33655089 2.0405025 0.89122164
-0.33701286 2.0348656 0.89396918
-0.33678499 2.0293727 0.89614576
-0.33655143 2.0238912 0.89831185
-0.33631361 2.0184224 0.90047097
-0.3360264 2.0129721 0.90258533
-0.34790051 2.0053148 0.91463155
-0.34693712 2.0000312 0.9161737
-0.34597564 1.9947555 0.91771495
-0.34501532 1.9894862 0.91925329
-0.3440555 1.9842243 0.92079049
-0.34232149 1.9791043 0.92169303
-0.34052742 1.9739978 0.92254668
-0.33873239 1.9688964 0.92339724
-0.3369388 1.9637977 0.9242478
-0.33416745 1.9588658 0.92430419
-0.33132434 1.953945 0.92430282
-0.32848197 1.949024 0.92430192
-0.32498625 1.9442066 0.92377353
-0.32066458 1.9395165 0.92258066
-0.31633747 1.9348216 0.92138588
-0.31057563 1.9303399 0.91903889
-0.30378765 1.9260018 0.91587293
-0.29448757 1.9220251 0.91069454
-0.27831125 1.9190344 0.90001237
-0.33122528 2.0427687 0.89390635
-0.33101746 2.0372539 0.89609843
-0.33078435 2.0317559 0.89826542
-0.33055151 2.0262685 0.90042841
-0.33028194 2.0207977 0.90255708
-0.32931256 2.0154665 0.90411115
-0.32834512 2.0101433 0.9056617
-0.34025955 2.0024984 0.91769284
-0.33930019 1.9972136 0.91923457
-0.33834347 1.9919364 0.92077368
-0.33661708 1.9868013 0.92168576
-0.33481848 1.9816824 0.9225387
-0.33302176 1.9765683 0.92339045
-0.33122724 1.9714574 0.92424268
-0.32845491 1.9665142 0.92430234
-0.32560655 1.9615829 0.92430151
-0.3227587 1.9566534 0.9242999
-0.31925535 1.951828 0.92377198
-0.3149201 1.9471327 0.92257547
-0.31058463 1.9424322 0.92137951
-0.30479777 1.9379513 0.91902184
-0.29799047 1.9336162 0.91585088
-0.28862581 1.9296525 0.9106372
-0.27221158 1.9267195 0.89979112
-0.32522225 2.0451686 0.89604723
-0.3249937 2.0396519 0.89821786
-0.32476634 2.0341449 0.90038586
-0.3245151 2.0286541 0.90252876
-0.32354742 2.0233071 0.90408528
-0.32258114 2.0179684 0.90563959
-0.32161272 2.0126364 0.90718895
-0.32040569 2.0073562 0.90854079
-0.33260855 1.9996786 0.92075777
-0.33088693 1.9945294 0.92167658
-0.32908738 1.9893972 0.92253023
-0.3272897 1.9842696 0.92338479
-0.32549348 1.979146 0.92423725
-0.32272047 1.9741917 0.92430198
-0.31986639 1.969252 0.92430037
-0.31701231 1.9643122 0.92429882
-0.31349942 1.9594795 0.92376846
-0.3091532 1.9547791 0.92256987
-0.30480963 1.9500729 0.92137438
-0.29899296 1.9455931 0.91900259
-0.29217231 1.9412589 0.91583186
-0.28273997 1.9373111 0.91057932
-0.26608977 1.9344361 0.89957154
-0.31895849 2.042053 0.900343
-0.31872374 2.0365412 0.90250003
-0.31775865 2.0311787 0.90405935
-0.31679139 2.0258245 0.9056142
-0.31582463 2.0204768 0.90716636
-0.31462881 2.0151794 0.9085297
-0.31281543 2.0100009 0.90939003
-0.31100321 2.0048265 0.91025108
-0.30919051 1.9996569 0.91110802
-0.32153451 1.992002 0.92337775
-0.31973734 1.9868649 0.9242326
-0.31696239 1.9819002 0.92429924
-0.31410357 1.9769506 0.92429835
-0.31124449 1.9720008 0.92429745
-0.30772254 1.9671607 0.92376572
-0.30336776 1.9624552 0.92256683
-0.29901177 1.9577444 0.92137015
-0.29316673 1.9532659 0.91898334
-0.28633296 1.9489323 0.91581309
-0.27683458 1.9449995 0.9105233
-0.25998747 1.9421769 0.89938587
-0.31194291 2.0390821 0.90403086
-0.31097758 2.0337117 0.90558851
-0.31001392 2.028348 0.90714431
-0.3088305 2.0230334 0.90851831
-0.30701545 2.0178421 0.90938056
-0.30519894 2.0126553 0.91024137
-0.30338433 2.007472 0.91110027
-0.30069187 2.002449 0.91125107
-0.29781157 1.9974608 0.91125065
-0.31118241 1.9896398 0.92429835
-0.3083176 1.9846797 0.92429745
-0.30545306 1.9797205 0.92429662
-0.30192205 1.9748727 0.92376196
-0.29755893 1.9701614 0.92256337
-0.29319099 1.9654449 0.92136353
-0.2873219 1.9609665 0.91896892
-0.28046814 1.9566352 0.9157936
-0.27091751 1.9527165 0.91047686
-0.25386041 1.9499497 0.8991996
-0.30417988 2.0362508 0.90712076
-0.30300739 2.0309193 0.90850604
-0.30118901 2.0257146 0.90936869
-0.29937199 2.0205142 0.9102307
-0.29755595 2.0153177 0.91109151
-0.29486826 2.010283 0.91125065
-0.29198128 2.0052848 0.91124976
-0.28909454 2.0002868 0.91124886
-0.28498572 1.9955013 0.91027063
-0.28059062 1.9907612 0.90906489
-0.27533054 1.9861628 0.90717107
-0.29172671 1.9778978 0.9225601
-0.28734735 1.9731762 0.92135817
-0.28145751 1.9686983 0.91895586
-0.27458254 1.9643691 0.91577458
-0.26497588 1.960464 0.91042972
-0.29534063 2.0336175 0.90935689
-0.29352218 2.0284038 0.9102208
-0.29170448 2.0231946 0.91108298
-0.28902012 2.0181475 0.91125
-0.28612766 2.0131397 0.9112491
-0.28323472 2.008131 0.91124827
-0.27912185 2.0033388 0.91027236
-0.27471888 1.9985932 0.90906733
-0.26944637 1.9939928 0.90717161
-0.26255038 1.9896605 0.90398699
-0.25285652 1.9857863 0.89858395
-0.23173277 1.9837995 0.88410938
-0.28314909 2.0260432 0.91124821
-0.28024995 2.0210254 0.9112466
-0.27735248 2.0160074 0.91124642
-0.2732358 2.0112078 0.91027457
-0.26882231 2.0064564 0.90906811
-0.26353696 2.001853 0.90717119
-0.2566269 1.9975221 0.9039861
-0.24690753 1.993657 0.89857918
-0.22571178 1.9917165 0.88408202
-0.27144614 2.0239143 0.91124433
-0.26732877 2.0191073 0.91027939
-0.2629036 2.0143511 0.90906984
-0.25760609 2.0097442 0.90717214
-0.25068006 2.0054145 0.90398568
-0.2409378 2.001559 0.8985759
-0.21966887 1.9996641 0.88405651
-0.24470913 2.0133383 0.90398574
-0.23494327 2.0094931 0.8985731
-0.50497103 1.9024719 0.7700448
-0.50033474 1.9077859 0.77374792
-0.47745013 1.9075849 0.76097965
-0.49569678 1.9131049 0.77745342
-0.5051384 1.913173 0.78597808
-0.47741199 1.9158239 0.76888466
-0.49036741 1.917998 0.78054237
-0.49905229 1.91756 0.78835869
-0.50710821 1.916765 0.79560781
-0.47274256 1.921178 0.77261353
-0.48424339 1.922408 0.78292823
-0.4929564 1.9219549 0.79074311
-0.50043082 1.9207679 0.79744697
-0.50707793 1.9190949 0.80340838
-0.44561505 1.918685 0.75627232
-0.46806693 1.926533 0.77634215
-0.4781065 1.926824 0.78531599
-0.48684573 1.926356 0.79312944
-0.49373913 1.9247789 0.79929113
-0.50041127 1.9230949 0.80525541
-0.50670147 1.9212009 0.81087947
-0.51219273 1.9188329 0.81578732
-0.44952106 1.9293449 0.76771736
-0.46313214 1.9317349 0.77984476
-0.47195792 1.9312489 0.78770876
-0.4803021 1.930504 0.79514217
-0.48703241 1.9287999 0.80113983
-0.4937284 1.927102 0.80710554
-0.49969196 1.9249799 0.81241894
-0.50520468 1.922601 0.8173306
-0.51069117 1.920231 0.82221866
-0.44480705 1.9347329 0.77146387
-0.45694757 1.9361839 0.78224468
-0.46579885 1.9356809 0.79010534
-0.4735539 1.9345449 0.79699135
-0.4803102 1.9328279 0.80299091
-0.48703003 1.931119 0.80895829
-0.49266195 1.9287659 0.8139596
-0.49819636 1.9263769 0.81887484
-0.50370812 1.9239969 0.82376885
-0.50868678 1.9213089 0.82819057
-0.44009423 1.9401269 0.77521658
-0.4507463 1.9406379 0.78464437
-0.45962882 1.9401219 0.79250598
-0.4667933 1.9385959 0.79884672
-0.47357249 1.9368659 0.80484724
-0.4800384 1.934974 0.81057048
-0.48561788 1.9325639 0.81550789
-0.49117279 1.9301629 0.82042503
-0.49670482 1.9277719 0.82532144
-0.50145936 1.9249219 0.82952905
-0.50618339 1.9220729 0.83370996
-0.51089001 1.9192339 0.8378756
-0.42112684 1.942943 0.76639843
-0.43537903 1.945524 0.77897072
-0.44453716 1.945102 0.78704977
-0.45317674 1.9444059 0.7946713
-0.46001554 1.942655 0.80070472
-0.46681952 1.940913 0.80670643
-0.47295427 1.9387909 0.81211782
-0.47855377 1.9363689 0.81705809
-0.4841311 1.9339579 0.82197809
-0.48945212 1.9314129 0.82667136
-0.49421263 1.9285439 0.83087063
-0.49895549 1.925684 0.83505535
-0.50367975 1.9228339 0.83922315
-0.50811553 1.9198239 0.84313583
-0.39105082 1.9815288 0.74790359
-0.40498805 1.9835788 0.76015711
-0.40319777 1.9525329 0.75858355
-0.41557741 1.9538689 0.76946712
-0.42258549 1.9520639 0.77562976
-0.429317 1.9501239 0.78154826
-0.43831587 1.9495729 0.78945971
-0.44635987 1.948486 0.79653168
-0.45322371 1.946723 0.80256653
-0.46005297 1.9449689 0.8085711
-0.46584988 1.9426169 0.81366777
-0.47147346 1.940185 0.81861234
-0.47707224 1.937763 0.82353473
-0.48216748 1.9350549 0.82801509
-0.48694563 1.9321749 0.8322165
-0.49170756 1.929305 0.83640265
-0.49645281 1.9264449 0.84057522
-0.50071216 1.923304 0.8443203
-0.50483513 1.9200959 0.84794569
-0.50894403 1.9168969 0.85155773
-0.39177465 1.9962168 0.75655127
-0.39984632 1.9948348 0.76362443
-0.40705395 1.9929898 0.76994014
-0.41292787 1.9904048 0.77508831
-0.40339088 1.9669069 0.76673079
-0.4104526 1.965063 0.77291846
-0.41750908 1.9632469 0.77910185
-0.42248964 1.960233 0.78346658
-0.42733812 1.9571619 0.78771496
-0.43216753 1.9541019 0.79194736
-0.4395256 1.9525759 0.79839587
-0.4464159 1.9508009 0.80443335
-0.45306253 1.9489089 0.8102572
-0.45872998 1.9464539 0.81522417
-0.46437383 1.9440099 0.82017016
-0.46999478 1.941577 0.82509565
-0.47486019 1.9387059 0.82935977
-0.47966027 1.935815 0.833565
-0.48444104 1.9329349 0.83775568
-0.48913741 1.9300239 0.84187102
-0.49329019 1.9267949 0.84550977
-0.49742913 1.9235759 0.84913659
-0.50155544 1.9203669 0.85275197
-0.5056684 1.917169 0.85635734
-0.3741889 2.0065248 0.74918103
-0.3874383 2.007988 0.76075292
-0.39471316 2.0061088 0.76710653
-0.40164447 2.0040669 0.77316022
-0.40661073 2.0009258 0.77749705
-0.41155791 1.9977968 0.78181767
-0.41648698 1.9946798 0.78612375
-0.39826155 1.9781518 0.77020526
-0.40536976 1.9762948 0.77641392
-0.41133261 1.9737999 0.78162098
-0.41621208 1.970696 0.78588414
-0.42108226 1.967608 0.79013753
-0.42581654 1.9644599 0.79427171
-0.42967653 1.960815 0.79764295
-0.43352532 1.9571799 0.80100417
-0.43959236 1.9548869 0.80630398
-0.44589972 1.9527659 0.81181312
-0.45159125 1.9503 0.81678367
-0.45725775 1.947845 0.82173252
-0.46269894 1.9452779 0.82648516
-0.46753621 1.9423679 0.8307097
-0.47235465 1.9394659 0.83491755
-0.47715592 1.9365759 0.83911204
-0.48167682 1.9335339 0.84305978
-0.48584557 1.9302939 0.84670115
-0.49000168 1.9270649 0.85033107
-0.49414563 1.923847 0.8539505
-0.49819207 1.9205859 0.85748386
-0.5018096 1.917074 0.86064363
-0.50541544 1.9135709 0.86379337
-0.37495184 2.0212238 0.75786257
-0.38229942 2.0193129 0.76425743
-0.38961124 2.0174148 0.77062297
-0.39529848 2.0146289 0.77557373
-0.40028024 2.011467 0.77991056
-0.40525031 2.0083199 0.78423643
-0.41020393 2.0051847 0.78854823
-0.41426444 2.0015578 0.7920835
-0.41817832 1.9978648 0.79549026
-0.40504003 1.9843109 0.78405333
-0.4099443 1.9811898 0.78832245
-0.41483092 1.9780798 0.79257679
-0.41901422 1.9745799 0.79621768
-0.42288804 1.9709159 0.79958963
-0.42675042 1.967263 0.80295205
-0.43060207 1.9636199 0.80630541
-0.43439507 1.9599589 0.80960703
-0.43872166 1.956633 0.81337285
-0.44443417 1.9541559 0.81834674
-0.45012331 1.9516889 0.82329822
-0.45533586 1.9489609 0.82783604
-0.46019149 1.9460379 0.83206201
-0.46502948 1.9431269 0.83627439
-0.46985006 1.940226 0.84047079
-0.47419262 1.937053 0.8442502
-0.47838092 1.9338039 0.84789634
-0.4825542 1.930566 0.85152912
-0.48671603 1.9273369 0.85515189
-0.49061012 1.9239609 0.85854197
-0.49424338 1.9204389 0.86170435
-0.49786615 1.916927 0.86485744
-0.50147867 1.9134239 0.86800241
-0.50508142 1.9099309 0.87113905
-0.38392973 2.0284088 0.77364349
-0.38895321 2.0252178 0.77800202
-0.39395881 2.022038 0.78234458
-0.39894676 2.0188689 0.78667235
-0.40347719 2.0154638 0.79060316
-0.40741634 2.0117407 0.79402065
-0.41134429 2.0080278 0.79742885
-0.41526055 2.0043268 0.80082607
-0.41916609 2.0006359 0.80421543
-0.42294884 1.9968908 0.80749655
-0.41219902 1.9847238 0.79817104
-0.41608953 1.9810429 0.80154514
-0.41996789 1.9773728 0.80491042
-0.42383599 1.9737129 0.80826712
-0.42729712 1.9698299 0.81126928
-0.43055844 1.9658439 0.8140986
-0.43381143 1.961867 0.816921
-0.43725944 1.9580209 0.81991339
-0.44297099 1.9555429 0.82486773
-0.4479506 1.952652 0.82918835
-0.45282745 1.949719 0.83341908
-0.45768499 1.9467969 0.83763337
-0.46247029 1.9438519 0.84178591
-0.46668935 1.9405829 0.84544611
-0.4708941 1.9373239 0.84909463
-0.47508645 1.9340749 0.85273099
-0.47926521 1.9308369 0.85635734
-0.48300743 1.9273459 0.85960317
-0.486655 1.9238139 0.86276841
-0.49029422 1.9202919 0.86592531
-0.493922 1.9167799 0.86907244
-0.49741864 1.9131999 0.87210679
-0.5005672 1.9094179 0.87483907
-0.39263177 2.0294378 0.78911304
-0.39659929 2.0256877 0.79254436
-0.40055561 2.0219469 0.79596424
-0.40449953 2.0182168 0.79937553
-0.40843272 2.0144978 0.80277634
-0.41235518 2.0107899 0.80616832
-0.41580224 2.0068269 0.8091495
-0.41910195 2.0027938 0.81200194
-0.4223938 1.9987698 0.81484914
-0.41317296 1.9875058 0.80687547
-0.41690183 1.9837378 0.81009984
-0.42018294 1.9797248 0.81293631
-0.42345524 1.9757218 0.81576681
-0.4267211 1.9717289 0.81859088
-0.42997766 1.9677449 0.82140732
-0.43322873 1.9637709 0.82421756
-0.43623304 1.9596639 0.82681537
-0.44054699 1.9563539 0.83054614
-0.44544315 1.9534099 0.83477974
-0.45032072 1.950478 0.83899808
-0.45492744 1.947403 0.84298086
-0.4591639 1.9441229 0.84664392
-0.46338654 1.940854 0.85029578
-0.46759629 1.9375949 0.85393643
-0.47170663 1.9342929 0.85749006
-0.47538185 1.9307419 0.86066771
-0.47904563 1.9272 0.86383581
-0.48269916 1.9236679 0.86699581
-0.48634362 1.9201459 0.87014651
-0.48969793 1.9164579 0.87304711
-0.49286008 1.912666 0.87578154
-0.49601626 1.908883 0.87851071
-0.49916387 1.9051089 0.88123298
-0.35383129 2.02806 0.76357102
-0.36327696 2.0272439 0.77171087
-0.37058544 2.0252788 0.77801037
-0.39368606 2.0321798 0.79791903
-0.39764571 2.0284309 0.80133176
-0.40159249 2.0246928 0.80473351
-0.40531945 2.0208478 0.80794454
-0.40863895 2.0167878 0.81080556
-0.41195178 2.0127368 0.8136611
-0.4152565 2.0086968 0.81650829
-0.41855216 2.0046659 0.81934953
-0.42184114 2.0006456 0.82218361
-0.41305232 1.9896458 0.81460953
-0.41633821 1.9856259 0.81744099
-0.41961622 1.9816158 0.82026577
-0.42288637 1.9776148 0.82308435
-0.42607617 1.9735819 0.82583404
-0.42891741 1.9693559 0.82828212
-0.43175268 1.96514 0.83072615
-0.43458223 1.9609331 0.83316469
-0.4380393 1.957111 0.83614373
-0.44293642 1.9541681 0.84036541
-0.4473629 1.9509621 0.84417987
-0.45161724 1.9476731 0.84784651
-0.45585823 1.944393 0.8515017
-0.46008658 1.9411241 0.85514498
-0.46404171 1.937708 0.85855389
-0.46773338 1.934147 0.86173534
-0.47141314 1.930595 0.86490631
-0.47508335 1.9270531 0.86806965
-0.47874308 1.923521 0.87122393
-0.48195052 1.919724 0.87398815
-0.48512697 1.915922 0.87672567
-0.48829818 1.9121311 0.87945843
-0.49146056 1.908347 0.88218522
-0.49450445 1.904503 0.8848083
-0.49719977 1.900452 0.88713002
-0.33629298 2.0387909 0.75649261
-0.35075927 2.040628 0.76891828
-0.35814023 2.03863 0.77525783
-0.36471987 2.036221 0.78090954
-0.36976147 2.03299 0.78524017
-0.37478471 2.0297699 0.78955579
-0.37979412 2.0265629 0.79385853
-0.39812446 2.0308499 0.80960393
-0.4014585 2.026773 0.81246662
-0.40478396 2.022706 0.81532359
-0.40810156 2.0186491 0.81817269
-0.41141129 2.0146008 0.82101631
-0.41471291 2.0105639 0.8238523
-0.41781569 2.0064259 0.82651711
-0.42068028 2.0021648 0.82897806
-0.42353892 1.997914 0.83143282
-0.41577744 1.98751 0.82476616
-0.4187305 1.9833149 0.82730317
-0.42158341 1.9790739 0.82975411
-0.42442989 1.9748421 0.83219886
-0.42727041 1.970618 0.83463836
-0.43010545 1.9664041 0.83707356
-0.43293428 1.962198 0.83950329
-0.4356935 1.9579641 0.84187341
-0.43977785 1.9545331 0.84538174
-0.4440496 1.951233 0.849051
-0.44830847 1.9479431 0.85270953
-0.45255446 1.944664 0.85635686
-0.45635414 1.941133 0.85962105
-0.46006179 1.937562 0.86280537
-0.46375775 1.934 0.86597991
-0.46744394 1.930449 0.86914611
-0.47098327 1.9268221 0.87218595
-0.47418213 1.923002 0.87493396
-0.47737312 1.91919 0.87767601
-0.48055816 1.9153891 0.88041091
-0.48373556 1.9115961 0.88313985
-0.48663211 1.9076411 0.88562775
-0.48933816 1.9035801 0.88795352
-0.49203968 1.899528 0.89027357
-0.49473619 1.8954841 0.89258957
-0.3176229 2.0429919 0.748523
-0.34561777 2.0520639 0.77248979
-0.35303116 2.0500429 0.77883577
-0.35832596 2.046896 0.78336883
-0.36339307 2.0436468 0.78770661
-0.3684411 2.0404091 0.7920289
-0.37287903 2.0368559 0.79582834
-0.37686729 2.033072 0.79924297
-0.38084555 2.0292988 0.80264759
-0.39760137 2.0327001 0.81699324
-0.40093136 2.028626 0.81984377
-0.4042542 2.0245609 0.8226881
-0.40754962 2.0204959 0.82550931
-0.41043162 2.0162101 0.82797718
-0.41330814 2.0119338 0.83043909
-0.41617846 2.0076659 0.83289742
-0.41904283 2.003407 0.83534908
-0.42190075 1.999157 0.83779573
-0.41422796 1.9888159 0.83122683
-0.41708708 1.9845679 0.83367395
-0.41993737 1.9803289 0.83611536
-0.42278409 1.9760989 0.83855224
-0.42562366 1.9718781 0.84098339
-0.42819548 1.9675101 0.84318447
-0.43069839 1.9631131 0.84532762
-0.4331975 1.958724 0.84746647
-0.43646073 1.954803 0.85026073
-0.44073796 1.951503 0.85392189
-0.44491363 1.9481601 0.85749745
-0.44864559 1.944569 0.86069155
-0.45236874 1.940987 0.8638792
-0.45608044 1.9374161 0.86705685
-0.4597826 1.9338541 0.87022591
-0.46317554 1.930119 0.87313151
-0.46638894 1.9262891 0.87588286
-0.46959615 1.9224681 0.87862754
-0.47279406 1.9186571 0.88136578
-0.47598529 1.914854 0.88409686
-0.47873425 1.9107901 0.88645053
-0.48145294 1.9067191 0.88877892
-0.48416662 1.902657 0.89110184
-0.48687506 1.8986031 0.89341998
-0.48944473 1.894474 0.89562058
-0.30389047 2.037703 0.74485087
-0.34306693 2.0527921 0.77827859
-0.3570261 2.0543299 0.79018879
-0.36193371 2.0509849 0.79437613
-0.36594868 2.0471709 0.79780245
-0.36995268 2.0433688 0.80121827
-0.37394667 2.039578 0.80462575
-0.37792897 2.0357981 0.80802488
-0.38152933 2.0318229 0.81109691
-0.39707875 2.0345449 0.82436371
-0.40013528 2.0303221 0.82697153
-0.40302944 2.0260201 0.82944202
-0.40591741 2.0217271 0.8319056
-0.40879917 2.0174439 0.83436418
-0.41167498 2.0131688 0.83681774
-0.41454458 2.008903 0.83926606
-0.41740799 2.0046458 0.84170938
-0.42022562 2.0003757 0.84411383
-0.42274761 1.9959459 0.84626555
-0.41544366 1.9858179 0.84003353
-0.41815758 1.9815019 0.84235024
-0.42067647 1.9770819 0.84449887
-0.42319012 1.9726701 0.84664345
-0.42569923 1.968266 0.84878397
-0.42820382 1.963871 0.85092068
-0.43070292 1.959483 0.85305452
-0.43319798 1.955104 0.85518336
-0.43716383 1.951616 0.858567
-0.44091344 1.948014 0.86176562
-0.44465208 1.9444231 0.86495638
-0.44838071 1.9408411 0.86813712
-0.45209837 1.9372691 0.87130904
-0.45534563 1.9334271 0.87408066
-0.45857286 1.9295861 0.87683415
-0.46179366 1.9257561 0.87958264
-0.46500611 1.921934 0.88232255
-0.46807194 1.9180361 0.88493967
-0.47081065 1.9139481 0.88727522
-0.47354126 1.909867 0.88960576
-0.47626901 1.9057961 0.89193249
-0.47898817 1.9017321 0.89425325
-0.48139524 1.897483 0.89630699
-0.48362207 1.893131 0.89820695
-0.48584485 1.8887861 0.90010357
-0.29005742 2.0323749 0.74114919
-0.32956004 2.0475898 0.77474236
-0.35901141 2.057514 0.79978776
-0.36303139 2.0536928 0.80320644
-0.36703992 2.0498829 0.80661583
-0.3709178 2.0460191 0.80991292
-0.37429047 2.041893 0.81278062
-0.37765312 2.037776 0.81564164
-0.38100839 2.033669 0.8184948
-0.38435555 2.029572 0.82134128
-0.39850426 2.0315459 0.83337259
-0.40139747 2.027246 0.83583307
-0.40428472 2.0229549 0.83828831
-0.40716553 2.0186729 0.84073853
-0.41004086 2.014401 0.84318376
-0.41266966 2.0099998 0.84541941
-0.4152019 2.0055549 0.84757304
-0.41772842 2.0011179 0.84972191
-0.42025161 1.996689 0.85186648
-0.41313434 1.986679 0.8458147
-0.415658 1.9822519 0.84796095
-0.41817713 1.9778329 0.85010219
-0.42069173 1.973423 0.85224104
-0.42320132 1.96902 0.8543756
-0.42570615 1.9646261 0.85650611
-0.42798615 1.960108 0.85844398
-0.43020153 1.9555631 0.86032891
-0.43315864 1.95147 0.86284304
-0.43691325 1.947868 0.86603665
-0.44065762 1.9442761 0.86922026
-0.44423962 1.940603 0.87226629
-0.44749022 1.9367441 0.87503052
-0.45073271 1.932894 0.87778783
-0.45396781 1.929054 0.88053918
-0.45719504 1.925222 0.88328362
-0.46011138 1.9212141 0.8857646
-0.46286201 1.917116 0.88810253
-0.46560597 1.9130261 0.89043617
-0.46834517 1.908944 0.89276648
-0.47107816 1.904871 0.89508939
-0.47332048 1.900503 0.89699745
-0.47555757 1.8961411 0.89889908
-0.47778988 1.8917861 0.90079832
-0.48001981 1.887439 0.90269423
-0.481951 1.882912 0.90433693
-0.31596351 2.0423529 0.7711854
-0.35470271 2.0572729 0.80401897
-0.36364818 2.0561318 0.81160092
-0.36703277 2.0519879 0.81446958
-0.37040997 2.0478539 0.81733227
-0.37377882 2.0437298 0.82018757
-0.37713957 2.0396159 0.82303524
-0.38042021 2.0354729 0.82581687
-0.38333559 2.0311399 0.82828784
-0.39687634 2.0327678 0.8397634
-0.39976907 2.02847 0.8422153
-0.40254569 2.0241189 0.84456897
-0.40509272 2.0196509 0.84672832
-0.40763545 2.0151911 0.84888291
-0.41017246 2.0107379 0.85103393
-0.41270542 2.0062938 0.85318017
-0.41523385 2.0018589 0.85532403
-0.41775703 1.9974309 0.85746193
-0.4106319 1.987425 0.85142326
-0.41315722 1.9829999 0.85356307
-0.41567683 1.9785819 0.85569835
-0.41807652 1.974105 0.85773301
-0.42030621 1.9695381 0.859622
-0.42253089 1.9649781 0.86150837
-0.42475319 1.9604261 0.8633914
-0.42697144 1.9558821 0.86527205
-0.42918611 1.9513451 0.86714888
-0.43291211 1.9477221 0.87030649
-0.43634582 1.94394 0.87321687
-0.43961143 1.940071 0.87598562
-0.44286799 1.936211 0.87874556
-0.44611788 1.932361 0.88150001
-0.44935775 1.928519 0.88424587
-0.45212603 1.9244031 0.88659239
-0.45488834 1.920294 0.88893366
-0.45764446 1.9161941 0.89126992
-0.46039653 1.9121031 0.89360142
-0.4629674 1.907912 0.8957808
-0.46521759 1.903532 0.89768839
-0.46746588 1.8991611 0.89959335
-0.4697094 1.8947971 0.90149522
-0.47195029 1.89044 0.90339398
-0.4736836 1.8857731 0.90486431
-0.47536278 1.8810791 0.906286
-0.29665279 2.0340469 0.76285601
-0.34133244 2.052124 0.80059862
-0.36314988 2.0579569 0.81902862
-0.36653233 2.0538158 0.82188487
-0.36990547 2.049685 0.82473493
-0.37294054 2.045382 0.82729864
-0.37586784 2.0410328 0.829772
-0.37878942 2.0366931 0.83223891
-0.38170433 2.032362 0.83470178
-0.39493561 2.0338111 0.8458786
-0.39749241 2.0293269 0.8480382
-0.40004539 2.0248508 0.85019493
-0.40259314 2.0203838 0.85234714
-0.40513611 2.0159249 0.85449529
-0.40767479 2.0114739 0.85663986
-0.41020846 2.0070319 0.85878038
-0.41273785 2.0025969 0.86091709
-0.41508007 1.9980659 0.86289573
-0.41731501 1.9934829 0.864784
-0.41036415 1.9835759 0.85891223
-0.4126029 1.978995 0.86080241
-0.41483784 1.974421 0.86269093
-0.41706824 1.969854 0.86457562
-0.41929626 1.9652951 0.86645675
-0.42151976 1.9607431 0.86833596
-0.42374086 1.956199 0.87021112
-0.42585778 1.951604 0.87200069
-0.42842865 1.947288 0.87417221
-0.43170834 1.9434091 0.8769424
-0.43498015 1.9395391 0.87970614
-0.43824363 1.9356791 0.88246274
-0.44133401 1.9317271 0.88507295
-0.44411397 1.9276 0.88742113
-0.44688988 1.9234821 0.88976622
-0.44965911 1.919373 0.89210534
-0.4524231 1.915272 0.89444041
-0.45482826 1.910962 0.89647293
-0.45708919 1.9065721 0.89838171
-0.45934796 1.902191 0.90029001
-0.46160126 1.897817 0.90219378
-0.46370196 1.8933561 0.90396857
-0.4653883 1.8886451 0.90539265
-0.46707368 1.883939 0.90681577
-0.46875596 1.8792402 0.90823817
-0.47031188 1.8744671 0.90955138
-0.2839644 2.0293329 0.76018906
-0.28396511 2.0231829 0.76018977
-0.36249566 2.0596929 0.82630539
-0.36544156 2.0553179 0.82878518
-0.36837935 2.050952 0.83125806
-0.37131262 2.0465961 0.83372855
-0.37423897 2.0422478 0.83619165
-0.37715983 2.03791 0.8386507
-0.38007307 2.0335808 0.84110427
-0.38269305 2.0290999 0.84330916
-0.39498901 2.030055 0.85366201
-0.39754367 2.0255799 0.85581207
-0.40009212 2.0211139 0.85795832
-0.40263677 2.0166569 0.86010003
-0.40510201 2.0121651 0.86217666
-0.40735173 2.007561 0.86406922
-0.40959668 2.0029631 0.86595964
-0.41183805 1.9983739 0.86784697
-0.41407609 1.9937919 0.86973166
-0.40711546 1.9838859 0.86387134
-0.4093554 1.9793049 0.86575723
-0.41159177 1.9747311 0.86764073
-0.41382623 1.9701661 0.86952043
-0.41605306 1.9656061 0.87139535
-0.41801691 1.960899 0.87304854
-0.41997623 1.9562 0.87469935
-0.42193389 1.9515071 0.8763473
-0.42388773 1.9468211 0.87799191
-0.42706704 1.9428771 0.88066888
-0.43034554 1.939007 0.88342905
-0.43328333 1.934945 0.88590193
-0.43607736 1.930809 0.88825417
-0.43886566 1.926681 0.89060163
-0.44164801 1.922562 0.8929441
-0.44438481 1.918427 0.89524841
-0.44666052 1.914021 0.89716458
-0.44893408 1.909623 0.89907908
-0.45120215 1.905231 0.90098882
-0.45346713 1.9008471 0.90289569
-0.45536828 1.8962461 0.90449619
-0.45706487 1.8915261 0.9059248
-0.4587574 1.8868101 0.90734911
-0.46044946 1.8821011 0.90877414
-0.46174669 1.8771511 0.90986657
-0.46273279 1.8720092 0.91069651
-0.27439618 2.0263109 0.76018858
-0.2743969 2.0201488 0.76018929
-0.35294032 2.0565939 0.82609487
-0.36381507 2.0565238 0.83521986
-0.36675358 2.0521598 0.83768582
-0.36968517 2.0478058 0.84014559
-0.37245226 2.0433729 0.84246731
-0.37503433 2.0388508 0.84463429
-0.37761045 2.0343349 0.84679604
-0.38018203 2.029829 0.84895372
-0.39248848 2.030782 0.85928011
-0.39504337 2.026309 0.86142373
-0.39734077 2.0217018 0.86335158
-0.39959979 2.0170829 0.86524725
-0.40185428 2.012471 0.86713886
-0.40410566 2.0078669 0.86902809
-0.40635324 2.0032711 0.87091398
-0.40859699 1.9986819 0.87279677
-0.4108367 1.9941 0.87467623
-0.41307378 1.9895269 0.8765533
-0.40611029 1.979615 0.87071013
-0.40817857 1.974943 0.87244582
-0.41015053 1.9702231 0.87410021
-0.41211939 1.96551 0.87575221
-0.41408563 1.960803 0.87740231
-0.41604829 1.9561031 0.87904906
-0.41800928 1.9514101 0.88069463
-0.41996646 1.9467241 0.88233685
-0.42239571 1.942329 0.88437533
-0.42520761 1.938174 0.88673496
-0.42801452 1.934028 0.88909006
-0.43081522 1.92989 0.89144015
-0.43361068 1.9257611 0.89378572
-0.43618059 1.921507 0.89594221
-0.43846798 1.917091 0.89786172
-0.44075084 1.9126821 0.89977717
-0.4430306 1.9082811 0.90169001
-0.44530106 1.903885 0.90359521
-0.44700789 1.899148 0.90502739
-0.44871092 1.8944161 0.90645623
-0.45041299 1.889691 0.9078846
-0.4521122 1.884973 0.90931034
-0.45315003 1.8798451 0.91018128
-0.45414042 1.8746922 0.91101241
-0.45513105 1.8695432 0.91184354
-0.26062274 2.0210381 0.75670385
-0.26624703 2.017889 0.76140761
-0.26624703 2.0117178 0.76140761
-0.36216569 2.057714 0.84162283
-0.36476159 2.0531659 0.84379482
-0.36735392 2.0486269 0.84596205
-0.36994123 2.0440969 0.84812617
-0.37252426 2.0395751 0.85028601
-0.37510061 2.0350609 0.85244131
-0.37767458 2.030556 0.85459328
-0.38955355 2.0312638 0.86452818
-0.39182091 2.0266299 0.86642456
-0.39408517 2.0220029 0.8683176
-0.39634657 2.017385 0.87020874
-0.39860344 2.012774 0.87209582
-0.40085721 2.0081711 0.87398076
-0.40310669 2.0035748 0.87586164
-0.40535116 1.9989859 0.87773967
-0.40740442 1.994296 0.87945604
-0.40937805 1.9895689 0.88110685
-0.40225625 1.9795719 0.87515068
-0.40423369 1.9748451 0.87680459
-0.40620732 1.970124 0.87845564
-0.40817928 1.96541 0.88010406
-0.41014767 1.960703 0.88175011
-0.41211367 1.9560031 0.88339448
-0.41394758 1.951233 0.88492846
-0.41564393 1.9463891 0.88634634
-0.41733718 1.9415511 0.8877635
-0.4199264 1.9372571 0.8899281
-0.42273974 1.933109 0.89228082
-0.42554784 1.9289701 0.89462948
-0.42794871 1.924597 0.89663768
-0.43024707 1.920171 0.89855957
-0.43254161 1.915753 0.90047812
-0.43483233 1.911342 0.90239382
-0.43690205 1.906806 0.90412569
-0.43861675 1.9020591 0.9055593
-0.4403286 1.8973171 0.90699029
-0.44203877 1.892583 0.90842128
-0.44352436 1.8877151 0.90966249
-0.44452286 1.882549 0.9104979
-0.44551778 1.8773851 0.91133022
-0.4465127 1.8722261 0.9121623
-0.44675493 1.8665951 0.91236544
-0.24654675 2.0156169 0.75302148
-0.25888181 2.016058 0.76330256
-0.25888181 2.0098789 0.76330256
-0.35964751 2.0584288 0.84729004
-0.36224532 2.0538831 0.8494556
-0.3648386 2.049345 0.85161734
-0.3674264 2.044816 0.85377407
-0.37000966 2.0402961 0.85592747
-0.37243581 2.0356989 0.85794902
-0.3747189 2.031033 0.8598516
-0.37699771 2.0263748 0.86175179
-0.38856077 2.0269289 0.87138963
-0.39082885 2.0223029 0.87327957
-0.39309072 2.0176849 0.87516546
-0.39534998 2.0130739 0.87704825
-0.3975122 2.008419 0.87885094
-0.39949822 2.0036709 0.88050556
-0.40147972 1.99893 0.8821578
-0.4034586 1.9941959 0.88380671
-0.40543485 1.9894689 0.88545442
-0.40740871 1.984749 0.88709903
-0.40028214 1.974743 0.88115954
-0.4022603 1.9700221 0.88280773
-0.40419984 1.965288 0.88442492
-0.40590501 1.9604241 0.88584638
-0.40760922 1.955567 0.88726592
-0.40931058 1.9507151 0.88868451
-0.41101027 1.94587 0.89010143
-0.41270757 1.9410311 0.89151549
-0.41463852 1.9363381 0.89312506
-0.417377 1.93214 0.89540744
-0.41969085 1.9276971 0.89733577
-0.42199922 1.923261 0.89925981
-0.42430377 1.918833 0.9011817
-0.42660451 1.914412 0.9030993
-0.42847443 1.909737 0.9046576
-0.430197 1.904979 0.90609288
-0.43191743 1.900228 0.90752721
-0.43363714 1.8954841 0.90895987
-0.43485951 1.890439 0.9099791
-0.43586135 1.8852611 0.91081452
-0.43686271 1.8800881 0.91164947
-0.43771768 1.8748271 0.91236186
-0.43772006 1.8690342 0.91236377
-0.43771935 1.8632382 0.91236329
-0.2523725 2.0146928 0.76592755
-0.25237179 2.008508 0.76592708
-0.35119128 2.0559211 0.8480165
-0.35973048 2.0545988 0.85511112
-0.36228228 2.0500388 0.85723042
-0.36457849 2.045351 0.8591373
-0.36687112 2.0406699 0.86104274
-0.36916018 2.0359969 0.86294389
-0.37144613 2.031332 0.86484265
-0.37372708 2.0266747 0.86673713
-0.38530278 2.0272279 0.8763535
-0.38757157 2.022603 0.87823772
-0.38957334 2.017837 0.87990165
-0.39156651 2.0130749 0.88155699
-0.39355803 2.0083199 0.88321137
-0.3955462 2.003572 0.88486242
-0.39753151 1.9988309 0.88651156
-0.39951324 1.9940969 0.88815904
-0.4014926 1.9893689 0.88980293
-0.40346885 1.9846479 0.89144421
-0.39612532 1.974521 0.88534331
-0.3978374 1.9696441 0.88676572
-0.39954925 1.9647731 0.88818765
-0.40125751 1.9599071 0.88960671
-0.40296364 1.955049 0.89102411
-0.40466833 1.9501951 0.89244008
-0.40636992 1.9453491 0.89385486
-0.40803623 1.940487 0.89523888
-0.40944695 1.9354811 0.8964107
-0.41140413 1.9308081 0.898036
-0.41372418 1.926362 0.89996314
-0.41603947 1.921923 0.90188646
-0.41828394 1.917451 0.90375137
-0.42001677 1.912678 0.90519142
-0.42174745 1.9079111 0.90662909
-0.4234767 1.9031501 0.90806556
-0.42515516 1.898365 0.90945959
-0.42616391 1.8931731 0.91029716
-0.4271698 1.887985 0.91113329
-0.42817616 1.8828011 0.91196871
-0.42865157 1.8772901 0.91236377
-0.42865014 1.8714832 0.91236258
-0.42865086 1.8656762 0.91236305
