# .PCD v0.7 - Point Cloud Data file format
VERSION 0.7
FIELDS x y z
SIZE 4 4 4
TYPE F F F
COUNT 1 1 1
WIDTH 1503
HEIGHT 1
VIEWPOINT 0 0 0 1 0 0 0
POINTS 1503
DATA ascii
-1.553977 2.2207327 0.82967639
-1.5598857 2.2213006 0.83838201
-1.5647672 2.2210236 0.84557343
-1.569077 2.2202826 0.85192299
-1.5731652 2.2193756 0.85794735
-1.5764793 2.2178228 0.86283135
-1.5797783 2.2162747 0.8676908
-1.5828953 2.2145867 0.87228394
-1.5854782 2.2124507 0.87608957
-1.5880517 2.2103219 0.87988186
-1.5320234 2.2135906 0.80508304
-1.5428207 2.2181988 0.82094026
-1.5498403 2.2196617 0.83124924
-1.5557696 2.2202337 0.83995533
-1.5603874 2.2197208 0.84673715
-1.564713 2.2189827 0.85309005
-1.5686405 2.2179267 0.85885787
-1.5719674 2.2163749 0.86374474
-1.5752772 2.2148256 0.86860418
-1.5782759 2.2130256 0.87300825
-1.5808699 2.2108908 0.8768177
-1.5299917 2.2143297 0.80983615
-1.53922 2.2175987 0.8233428
-1.5456991 2.2185907 0.83282757
-1.5516326 2.2191548 0.84151268
-1.5560019 2.2184176 0.84790826
-1.5603406 2.2176807 0.85425901
-1.5641041 2.2164726 0.85976791
-1.5674472 2.2149239 0.86466074
-1.5707662 2.2133746 0.86951971
-1.573647 2.2114627 0.8737359
-1.5762504 2.2093258 0.87754703
-1.5263581 2.2137198 0.81224227
-1.5355351 2.2169297 0.82563066
-1.5415491 2.2175157 0.83440495
-1.5472212 2.2178447 0.84267998
-1.5516051 2.2171106 0.84907651
-1.5559599 2.2163758 0.85543013
-1.5595603 2.2150187 0.86068344
-1.5629127 2.2134676 0.86557484
-1.5662471 2.2119207 0.87043762
-1.5690055 2.2098937 0.87446356
-1.5227289 2.2131157 0.8146615
-1.5313585 2.2158499 0.82721186
-1.5373923 2.2164388 0.83598471
-1.5428007 2.2165337 0.84385014
-1.5471997 2.2157998 0.85024619
-1.5515709 2.2150679 0.85660338
-1.5550053 2.2135587 0.86159873
-1.5583699 2.2120087 0.86649084
-1.5617166 2.2104626 0.87135649
-1.5643548 2.2083228 0.87519264
-1.5669783 2.2061858 0.87900925
-1.5047061 2.2050366 0.79622674
-1.5190924 2.2125087 0.81707835
-1.5271749 2.2147677 0.828794
-1.5332286 2.2153606 0.83756757
-1.5383708 2.2152176 0.84502077
-1.5427856 2.2144878 0.85141945
-1.5470462 2.2136497 0.85759497
-1.5504423 2.2120976 0.8625176
-1.5538166 2.2105467 0.86740899
-1.5570486 2.2088919 0.87209201
-1.5596921 2.2067478 0.87592363
-1.5623257 2.2046099 0.87974191
-1.5030789 2.2061276 0.80162096
-1.5154543 2.2119017 0.81949925
-1.5229861 2.2136836 0.83037901
-1.529058 2.2142806 0.83915281
-1.533933 2.2139018 0.84619474
-1.5383627 2.2131717 0.85259438
-1.5424584 2.2121837 0.85851145
-1.545867 2.2106318 0.86343527
-1.5492544 2.2090816 0.86832976
-1.5523627 2.2073107 0.87281919
-1.5550182 2.2051687 0.87665701
-1.5576612 2.2030287 0.88047504
-1.5602881 2.2008908 0.88426924
-1.5014541 2.2072167 0.80700493
-1.5118119 2.2112937 0.82192039
-1.5187886 2.2125978 0.8319664
-1.5248811 2.2131996 0.8407402
-1.5294867 2.2125816 0.84737086
-1.5339315 2.2118537 0.85377145
-1.5378597 2.2107129 0.85942888
-1.5412803 2.2091618 0.86435413
-1.5446813 2.2076128 0.86925077
-1.5476692 2.2057297 0.8735528
-1.5503347 2.2035856 0.8773911
-1.5529861 2.2014446 0.88120985
-1.4986769 2.2073457 0.81072378
-1.5081668 2.2106848 0.82434464
-1.5145836 2.2115097 0.83355522
-1.52054 2.2119827 0.84210253
-1.5250298 2.2112577 0.84854746
-1.5294912 2.2105336 0.85495114
-1.5332525 2.2092397 0.8603487
-1.5366839 2.2076888 0.86527491
-1.540099 2.2061417 0.8701756
-1.5429626 2.2041426 0.87428594
-1.5456381 2.2019978 0.87812495
-1.5483015 2.1998577 0.88194704
-1.495002 2.2067318 0.81315851
-1.5041898 2.2098026 0.82630086
-1.5103724 2.2104197 0.83514643
-1.5160584 2.2106547 0.84328032
-1.5205648 2.2099319 0.84972715
-1.5250434 2.2092109 0.85613394
-1.528635 2.2077646 0.86127162
-1.5320785 2.2062128 0.86619759
-1.5355066 2.2046666 0.87110138
-1.5382456 2.2025518 0.87501955
-1.5409297 2.2004068 0.87886047
-1.4913256 2.2061176 0.81559539
-1.4999521 2.2087078 0.82789612
-1.5061553 2.2093277 0.83674073
-1.5115707 2.2093258 0.84446239
-1.5160913 2.2086029 0.85090804
-1.5205295 2.2078366 0.85723662
-1.5240064 2.2062836 0.8621943
-1.5274621 2.2047329 0.86712241
-1.5308079 2.2031069 0.87189198
-1.5335174 2.2009587 0.87575674
-1.5362115 2.1988118 0.87959838
-1.5388974 2.1966708 0.88342643
-1.4736178 2.1985316 0.79809833
-1.4876443 2.2055016 0.81803465
-1.4957066 2.2076106 0.82949257
-1.5019301 2.2082348 0.83833742
-1.507071 2.2079906 0.84564328
-1.5116088 2.2072716 0.85209155
-1.5158765 2.2063518 0.85815811
-1.5193663 2.2047997 0.86311746
-1.5228362 2.2032497 0.86804891
-1.5260577 2.2015097 0.87262774
-1.5287769 2.1993599 0.87649179
-1.531482 2.1972127 0.88033724
-1.4720007 2.1996367 0.80353355
-1.4839611 2.2048857 0.8204751
-1.4914548 2.2065108 0.83109188
-1.4976991 2.2071397 0.83993721
-1.5025622 2.2066548 0.8468256
-1.5071173 2.2059379 0.85327792
-1.5112159 2.2048657 0.85908413
-1.5147164 2.2033117 0.86404324
-1.5182002 2.2017636 0.86897826
-1.5212976 2.1999087 0.87336588
-1.5240248 2.1977568 0.87722969
-1.5267414 2.1956096 0.88107705
-1.4703865 2.2007389 0.80895925
-1.4802729 2.2042699 0.82291794
-1.4871948 2.2054086 0.83269215
-1.4934452 2.2060308 0.84151721
-1.4980443 2.2053146 0.84801078
-1.5026166 2.2046018 0.8544662
-1.5065435 2.2033749 0.86001039
-1.5100558 2.2018218 0.86497068
-1.5135529 2.2002747 0.86990881
-1.516525 2.1983037 0.87410498
-1.5192623 2.1961498 0.8779695
-1.5219891 2.1940026 0.8818202
-1.5244915 2.1916797 0.88535309
-1.4662453 2.1997697 0.81081581
-1.4765823 2.2036529 0.82536387
-1.4829285 2.2043056 0.83429599
-1.4889041 2.2046866 0.84270406
-1.4935181 2.2039728 0.8491981
-1.498107 2.2032619 0.85565567
-1.5018588 2.2018788 0.86093688
-1.5053859 2.2003279 0.86590028
-1.5088972 2.1987817 0.87084126
-1.5117402 2.1966927 0.87484288
-1.5144883 2.19454 0.87871027
-1.5172269 2.1923928 0.88256407
-1.4611579 2.1980319 0.8113575
-1.4722985 2.2025518 0.82698441
-1.4786549 2.2032008 0.83590126
-1.4843508 2.2033386 0.84389091
-1.4889829 2.2026277 0.85038853
-1.4935892 2.2019207 0.85685015
-1.4971645 2.2003798 0.86186433
-1.5007054 2.1988299 0.8668313
-1.5041715 2.197237 0.87169409
-1.5069433 2.1950788 0.8755827
-1.5097023 2.192925 0.87945247
-1.5124524 2.1907787 0.8833096
-1.4560579 2.1962886 0.81190014
-1.4679848 2.2014308 0.82857466
-1.4743756 2.2020936 0.83751011
-1.4797894 2.2019887 0.8450799
-1.4844388 2.2012806 0.85158038
-1.4888884 2.2004318 0.85780072
-1.4924598 2.1988778 0.86279488
-1.4960142 2.1973288 0.86776423
-1.4993534 2.1956198 0.87243414
-1.5021353 2.1934609 0.87632346
-1.5049068 2.191308 0.88019705
-1.5076671 2.1891618 0.88405752
-1.4140966 2.1692717 0.76109219
-1.4509436 2.1945407 0.81244135
-1.4627497 2.1995606 0.82889438
-1.4700878 2.2009859 0.83912086
-1.4752188 2.200635 0.84627199
-1.4798855 2.1999309 0.8527751
-1.4841601 2.198926 0.85873246
-1.4877443 2.1973729 0.86372709
-1.4913132 2.1958258 0.86870074
-1.494524 2.1939988 0.87317562
-1.4973154 2.1918387 0.8770659
-1.500098 2.1896858 0.88094378
-1.5027839 2.1874659 0.88468575
-1.4124197 2.1750898 0.7665956
-1.4127177 2.1706138 0.76701045
-1.4458175 2.1927886 0.81298709
-1.4575012 2.1976867 0.829216
-1.4652362 2.199419 0.83996058
-1.4706393 2.1992798 0.84746552
-1.4753233 2.1985779 0.85397291
-1.4794204 2.1974158 0.85966253
-1.4830186 2.1958637 0.86466074
-1.4866012 2.1943178 0.8696382
-1.4896822 2.1923728 0.87391663
-1.492485 2.1902127 0.87781
-1.4952792 2.1880598 0.88169098
-1.497859 2.1857419 0.88527489
-1.5000285 2.1830919 0.8882885
-1.4110441 2.1764247 0.77250385
-1.4113424 2.1719527 0.77291727
-1.440678 2.1910329 0.81353307
-1.4522368 2.195807 0.82953715
-1.460008 2.1975508 0.84029675
-1.4656016 2.1975527 0.84803963
-1.470752 2.1972218 0.85517192
-1.4746704 2.1959019 0.8605957
-1.4782822 2.1943519 0.86559749
-1.4818795 2.1928077 0.87057781
-1.4848274 2.190743 0.87466002
-1.4876428 2.1885829 0.87855744
-1.4904475 2.1864309 0.88244081
-1.492919 2.1840119 0.88586187
-1.495098 2.1813607 0.88887954
-1.4098845 2.1779287 0.77869606
-1.4100758 2.1733756 0.77896118
-1.4355243 2.189271 0.81407905
-1.4469593 2.1939218 0.82986069
-1.4547658 2.1956768 0.84063268
-1.4603076 2.1956239 0.84828138
-1.4656348 2.1954229 0.85563231
-1.46983 2.1943197 0.86142159
-1.4735355 2.1928358 0.86653614
-1.4771264 2.1912758 0.87149
-1.4799622 2.1891098 0.87540483
-1.4827894 2.1869497 0.8793056
-1.485606 2.1847968 0.88319254
-1.4879678 2.1822777 0.88645101
-1.4901557 2.179626 0.88947082
-1.4923384 2.17698 0.89248276
-1.4086297 2.1840549 0.78474069
-1.4088215 2.1795049 0.78500342
-1.409012 2.1749558 0.7852664
-1.4303571 2.1875048 0.81462693
-1.4416676 2.1920328 0.83018517
-1.4495085 2.1937978 0.84096909
-1.4550003 2.1936889 0.84852362
-1.4603517 2.1934948 0.85588455
-1.4645194 2.1923568 0.8616178
-1.4684707 2.1910639 0.86705208
-1.4722207 2.1896248 0.87221026
-1.475086 2.1874719 0.87615085
-1.4779238 2.1853118 0.88005424
-1.480752 2.1831598 0.8839457
-1.4830034 2.1805389 0.88704228
-1.4852015 2.177886 0.89006543
-1.4076447 2.1856828 0.79113817
-1.4077599 2.181078 0.79129648
-1.4079511 2.1765337 0.79155874
-1.4251784 2.1857347 0.81517792
-1.4363613 2.1901379 0.83051038
-1.4442365 2.1919138 0.84130764
-1.4496791 2.1917498 0.84876847
-1.4550538 2.1915607 0.85613728
-1.4591938 2.1903877 0.86181331
-1.4631636 2.1890979 0.86725664
-1.4668949 2.1876309 0.87237167
-1.4699123 2.1855938 0.87650919
-1.4729205 2.1835659 0.88063264
-1.4758139 2.181458 0.88460064
-1.4780269 2.1787958 0.8876338
-1.4802328 2.1761417 0.89065981
-1.4069508 2.1875379 0.79791594
-1.4070621 2.1829348 0.79806805
-1.4071732 2.1783328 0.79822016
-1.4199861 2.1839609 0.81572938
-1.4310408 2.1882379 0.83083677
-1.4389067 2.1899889 0.84158564
-1.4443405 2.189805 0.8490119
-1.4497404 2.1896219 0.85639143
-1.4538529 2.1884139 0.86201024
-1.457841 2.1871257 0.86745977
-1.4615527 2.1856318 0.87253237
-1.4645848 2.1835959 0.87667704
-1.4676063 2.1815679 0.88080645
-1.4704992 2.1794488 0.8847599
-1.4727943 2.176846 0.88789558
-1.4062581 2.1893868 0.8046751
-1.4063693 2.1847899 0.80482721
-1.4064806 2.1801939 0.80497766
-1.4147807 2.1821818 0.81628275
-1.4257038 2.1863317 0.83116245
-1.4335294 2.1880329 0.84182119
-1.4389888 2.1878548 0.84925699
-1.4444127 2.1876769 0.85664511
-1.4484968 2.1864328 0.86220765
-1.4525018 2.1851468 0.86766338
-1.4561958 2.1836269 0.87269521
-1.4592421 2.181592 0.87684512
-1.4622782 2.179565 0.88098001
-1.4651535 2.1774199 0.88489652
-1.4674592 2.1748159 0.88803744
-1.4058338 2.191443 0.81177807
-1.4059024 2.1868188 0.81187081
-1.4059708 2.1821947 0.81196356
-1.4095603 2.180398 0.81683683
-1.4203528 2.1844208 0.83148909
-1.4281362 2.18607 0.84205675
-1.4336206 2.1858988 0.84950304
-1.4390689 2.1857257 0.85689974
-1.4431245 2.1844468 0.86240578
-1.4471486 2.1831639 0.86786842
-1.4508234 2.1816158 0.87285781
-1.4538834 2.1795819 0.87701273
-1.4569335 2.1775548 0.88115311
-1.4597908 2.175385 0.88503361
-1.4621074 2.172781 0.88817835
-1.4010856 2.1900618 0.81300497
-1.4056361 2.1889999 0.81916404
-1.4057045 2.1843839 0.81925678
-1.405773 2.1797678 0.81934929
-1.414987 2.1825037 0.8318181
-1.4227283 2.1841018 0.84229255
-1.4282379 2.1839368 0.8497498
-1.4336739 2.1837399 0.85710478
-1.4377367 2.1824548 0.8626039
-1.4417794 2.1811748 0.86807418
-1.4454347 2.1795988 0.87302113
-1.4485093 2.1775658 0.87718201
-1.4515736 2.175539 0.88132763
-1.4544134 2.1733439 0.88517118
-1.4567401 2.1707377 0.88832045
-1.4590607 2.1681399 0.8914609
-1.3957715 2.1882379 0.81348562
-1.4054393 2.1912289 0.82652569
-1.4055132 2.186625 0.82662559
-1.4055872 2.1820197 0.82672572
-1.4096062 2.180583 0.83214617
-1.417305 2.1821289 0.84253025
-1.4228394 2.1819687 0.84999633
-1.428252 2.1817398 0.85729671
-1.4323331 2.1804569 0.86280179
-1.4363941 2.1791799 0.86827993
-1.4400302 2.177577 0.87318444
-1.4431198 2.1755438 0.87735128
-1.4461963 2.1735177 0.88150191
-1.4490187 2.1712968 0.88530874
-1.4513572 2.1686897 0.88846302
-1.3904439 2.18641 0.8139677
-1.4024734 2.1912539 0.83014107
-1.4057249 2.189178 0.83451295
-1.4057987 2.1845827 0.83461285
-1.4058738 2.1799879 0.83471227
-1.4118659 2.180151 0.84276891
-1.4174252 2.179996 0.85024285
-1.4228148 2.1797338 0.85748839
-1.4269145 2.1784539 0.86300135
-1.4309943 2.1771789 0.86848617
-1.4346102 2.1755478 0.87334776
-1.4377139 2.1735158 0.87752104
-1.4408057 2.1714897 0.88167691
-1.4436094 2.1692438 0.88544703
-1.445959 2.1666369 0.88860512
-1.3851 2.1845748 0.81444979
-1.397022 2.189312 0.83042574
-1.4052726 2.191196 0.84148169
-1.4060107 2.1871357 0.84247041
-1.4061089 2.182569 0.84260225
-1.4064112 2.1781659 0.84300756
-1.4119962 2.1780179 0.85049152
-1.4173611 2.177721 0.8576808
-1.4214797 2.1764438 0.86320066
-1.4255781 2.1751728 0.86869311
-1.4291748 2.1735139 0.87351227
-1.4322921 2.1714818 0.87769079
-1.4353983 2.169457 0.88185334
-1.4381844 2.1671858 0.8855865
-1.4405442 2.164577 0.88874817
-1.379746 2.1827388 0.81493735
-1.391556 2.1873639 0.83071232
-1.3998439 2.189261 0.84178257
-1.4059956 2.1894999 0.84999776
-1.4068364 2.185534 0.85112095
-1.4069779 2.1810117 0.85131025
-1.4071193 2.1764898 0.85149956
-1.4118912 2.175704 0.85787416
-1.4160289 2.1744289 0.8634007
-1.4201471 2.173161 0.86890054
-1.4237235 2.171474 0.87367821
-1.4268558 2.1694417 0.87786126
-1.4299757 2.167418 0.88202882
-1.4327424 2.1651211 0.88572478
-1.4351134 2.1625109 0.88889194
-1.4374772 2.1599069 0.89204884
-1.374373 2.1808939 0.8154192
-1.3860751 2.1854119 0.83099937
-1.3943998 2.1873188 0.84208226
-1.4005079 2.18751 0.85021544
-1.4061648 2.1873727 0.85774612
-1.4077023 2.1839728 0.85979223
-1.4079281 2.1795299 0.86009407
-1.4082117 2.1751328 0.86047173
-1.410563 2.1724079 0.86360145
-1.4146997 2.1711419 0.86910868
-1.4182556 2.1694269 0.87384319
-1.4214017 2.1673958 0.87803245
-1.4245365 2.1653728 0.88220596
-1.4272847 2.163049 0.88586426
-1.4296668 2.1604381 0.88903546
-1.4320407 2.1578341 0.89219713
-1.3689895 2.1790469 0.81590796
-1.3805788 2.1834528 0.83128643
-1.38894 2.1853719 0.84238315
-1.3950063 2.185514 0.85043287
-1.4006891 2.1853838 0.85797381
-1.4056072 2.1846738 0.86450148
-1.4091823 2.1829147 0.86924505
-1.409465 2.1785288 0.8696208
-1.4097476 2.1741428 0.86999488
-1.4100295 2.1697598 0.87036991
-1.4127719 2.1673748 0.87400913
-1.4159327 2.165344 0.87820292
-1.419082 2.163322 0.88238215
-1.4218109 2.1609721 0.88600469
-1.4242041 2.15836 0.88917971
-1.42659 2.155755 0.89234614
-1.3635898 2.1771927 0.81639528
-1.375066 2.181489 0.83157563
-1.3834654 2.1834188 0.84268618
-1.3894882 2.1835127 0.85065222
-1.3951961 2.1833887 0.85820246
-1.4000919 2.1826477 0.86467862
-1.4042971 2.1813798 0.87023973
-1.40848 2.1801169 0.87577295
-1.4111497 2.1776578 0.87930417
-1.411654 2.1734648 0.8799715
-1.4121579 2.1692748 0.88063836
-1.4126621 2.165087 0.88130569
-1.4136107 2.1612649 0.88255978
-1.4163215 2.1588879 0.88614511
-1.4187241 2.1562748 0.88932419
-1.4211215 2.1536689 0.89249372
-1.4234012 2.150979 0.89550972
-1.3581765 2.1753349 0.81688547
-1.3695371 2.1795187 0.83186412
-1.3779755 2.1814618 0.84298897
-1.3839538 2.1815057 0.85087204
-1.3896883 2.1813879 0.85843182
-1.3945618 2.1806149 0.86485791
-1.3987854 2.1793499 0.87042522
-1.402989 2.1780908 0.87596798
-1.4066036 2.1763818 0.88073325
-1.4097968 2.1743517 0.88494396
-1.4129783 2.1723289 0.88913846
-1.4144055 2.1689 0.89102006
-1.4151349 2.1649098 0.89198184
-1.4159383 2.160984 0.8930397
-1.4167404 2.1570611 0.89409781
-1.4175411 2.153142 0.89515352
-1.3527491 2.1734729 0.81737781
-1.3639926 2.1775427 0.83215261
-1.3724697 2.1794989 0.84329319
-1.3784041 2.179493 0.85109234
-1.3841641 2.1793809 0.85866165
-1.3890156 2.1785769 0.86503649
-1.393259 2.1773148 0.87061286
-1.3974824 2.1760588 0.87616301
-1.4010777 2.1743228 0.8808887
-1.4042851 2.1722927 0.88510346
-1.4074819 2.1702719 0.88930392
-1.4105903 2.1681957 0.89338875
-1.4130156 2.165581 0.89657664
-1.4154338 2.1629729 0.89975452
-1.4178456 2.160373 0.9029243
-1.4197487 2.1573679 0.90542459
-1.3473067 2.1716049 0.81787109
-1.3584318 2.1755619 0.83244324
-1.3669479 2.1775298 0.84359813
-1.3728373 2.177474 0.85131264
-1.3786244 2.1773677 0.85889292
-1.3834512 2.1765327 0.86521578
-1.3877155 2.1752739 0.87080026
-1.3919572 2.1740208 0.87635684
-1.3955349 2.1722579 0.88104296
-1.3987577 2.170229 0.88526392
-1.4019685 2.1682079 0.88947129
-1.4050611 2.1661079 0.89352059
-1.4074976 2.163492 0.8967123
-1.4099274 2.1608839 0.89989614
-1.3418497 2.1697319 0.81836462
-1.3528569 2.1735749 0.83273506
-1.3614018 2.1755478 0.84389162
-1.3672547 2.1754489 0.85153389
-1.3730683 2.1753488 0.85912371
-1.3778715 2.1744819 0.86539531
-1.3821548 2.1732268 0.87098789
-1.386417 2.1719759 0.87655258
-1.3899758 2.170187 0.88119912
-1.3932132 2.168159 0.88542604
-1.3964403 2.1661389 0.88963914
-1.3995142 2.1640129 0.89365149
-1.401963 2.161397 0.89684868
-1.4044039 2.158787 0.90003657
-1.3363787 2.1678548 0.81885982
-1.3472642 2.1715817 0.83302641
-1.3557757 2.1735098 0.84410286
-1.3616554 2.1734178 0.85175562
-1.3674953 2.1733248 0.85935545
-1.3722758 2.1724257 0.86557674
-1.3765801 2.1711729 0.87117672
-1.3808609 2.1699257 0.87674761
-1.3843998 2.1681099 0.88135433
-1.3876536 2.1660829 0.88558817
-1.3908943 2.164063 0.88980627
-1.3939523 2.1619129 0.89378476
-1.3964115 2.159296 0.89698648
-1.3988651 2.1566849 0.90017843
-1.4013113 2.154083 0.90336156
-1.3416561 2.1695838 0.83332014
-1.3501338 2.1714678 0.84431624
-1.3560402 2.171381 0.85197711
-1.3619075 2.1712947 0.85958791
-1.3666636 2.1703629 0.8657577
-1.3709871 2.1691139 0.87136602
-1.3752875 2.1678689 0.8769443
-1.3788081 2.1660259 0.8815105
-1.3820765 2.164 0.88575029
-1.385332 2.1619811 0.88997412
-1.3883728 2.159806 0.89391708
-1.390843 2.157187 0.8971231
-1.3933084 2.1545773 0.90031958
-1.3360325 2.1675808 0.83361435
-1.3444744 2.1694179 0.8445282
-1.3504075 2.1693377 0.85219932
-1.3563019 2.1692579 0.85982156
-1.3610345 2.168294 0.86594009
-1.3653767 2.167048 0.87155342
-1.3696973 2.1658068 0.87714076
-1.3731995 2.1639371 0.88166833
-1.3764832 2.161912 0.88591313
-1.3797536 2.159893 0.89014268
-1.382777 2.1576931 0.8940506
-1.385259 2.1550741 0.8972609
-1.3877361 2.152462 0.90046358
-1.3902042 2.149857 0.90365458
-1.3387983 2.1673627 0.84474134
-1.3447592 2.1672888 0.85242295
-1.3506815 2.1672158 0.86005569
-1.3553882 2.1662197 0.86612225
-1.3597515 2.1649761 0.87174416
-1.3640921 2.1637383 0.87733817
-1.3675736 2.1618409 0.88182473
-1.3708715 2.1598163 0.88607621
-1.3741586 2.1577992 0.89031076
-1.3771636 2.1555741 0.89418459
-1.3796587 2.1529541 0.89739966
-1.382146 2.150341 0.90060544
-1.2946192 2.1353989 0.79551864
-1.339094 2.1652341 0.85264826
-1.3450428 2.165168 0.86029005
-1.3497264 2.164139 0.86630464
-1.354108 2.1628981 0.87193418
-1.3584685 2.161664 0.87753558
-1.3619311 2.159739 0.88198256
-1.3652443 2.1577151 0.88623929
-1.368546 2.1556981 0.890481
-1.3715343 2.1534481 0.89431858
-1.3740406 2.1508269 0.89753771
-1.3765397 2.1482131 0.90074825
-1.2907625 2.134819 0.79826498
-1.312699 2.147053 0.82635164
-1.3393892 2.1631141 0.86052489
-1.3440455 2.1620512 0.86648798
-1.3484483 2.160814 0.87212467
-1.3528304 2.1595831 0.8777349
-1.3562714 2.15763 0.88214064
-1.3596001 2.1556072 0.88640356
-1.3629173 2.1535912 0.89065027
-1.3658875 2.1513162 0.89445329
-1.3684063 2.148694 0.8976779
-1.3709157 2.1460791 0.90089178
-1.2869111 2.1342449 0.80102515
-1.3070154 2.1450238 0.82668257
-1.3157933 2.147079 0.8378849
-1.3383482 2.1599581 0.86667037
-1.3427722 2.1587241 0.87231612
-1.3471743 2.157496 0.87793374
-1.3505949 2.1555152 0.88229871
-1.3539395 2.1534929 0.88656712
-1.3572714 2.1514781 0.89082003
-1.3602232 2.1491771 0.89458776
-1.3627536 2.146554 0.89781666
-1.3652754 2.1439381 0.90103579
-1.36779 2.1413291 0.90424514
-1.3699088 2.138413 0.90694857
-1.2830526 2.133667 0.80378318
-1.3013165 2.1429911 0.8270154
-1.3101331 2.1450582 0.83823061
-1.3169627 2.1456201 0.8469193
-1.3229706 2.1455731 0.85456085
-1.341501 2.1554031 0.87813401
-1.3449013 2.1533942 0.88245845
-1.3482606 2.1513731 0.88673258
-1.3516088 2.1493592 0.89099121
-1.3545423 2.1470323 0.8947227
-1.3570836 2.1444082 0.89795589
-1.3596178 2.1417911 0.90118027
-1.3621449 2.1391811 0.9043932
-1.3642422 2.1362381 0.90706158
-1.2956002 2.1409512 0.82734776
-1.3044566 2.1430311 0.83857775
-1.3112333 2.1435351 0.84717011
-1.317268 2.1434951 0.85482121
-1.3221707 2.1425982 0.86103821
-1.3266249 2.1413732 0.86668658
-1.342566 2.1492462 0.8868978
-1.3459295 2.147233 0.89116287
-1.3488445 2.1448812 0.89485931
-1.3513983 2.1422551 0.89809608
-1.3539429 2.139637 0.9013238
-1.3564819 2.1370261 0.90454292
-1.3585582 2.1340561 0.90717554
-1.3604217 2.1309252 0.90953803
-1.2898674 2.138905 0.82768202
-1.2987646 2.1409981 0.83892536
-1.3054857 2.1414442 0.84742022
-1.3115487 2.1414111 0.85508299
-1.3164222 2.1404772 0.86124158
-1.320897 2.139255 0.86689687
-1.3251386 2.1378732 0.87225747
-1.3285389 2.1358471 0.87655592
-1.3319273 2.1338301 0.88083792
-1.3351419 2.131691 0.88490057
-1.3482524 2.1374769 0.90146899
-1.3508029 2.134865 0.90469265
-1.3528564 2.1318681 0.90728903
-1.2841182 2.1368532 0.82801533
-1.2930555 2.1389589 0.83927441
-1.2997215 2.1393461 0.84767175
-1.3058121 2.1393201 0.85534501
-1.3106551 2.1383491 0.86144519
-1.315151 2.1371312 0.86710787
-1.3193719 2.1357203 0.87242627
-1.3227886 2.1336961 0.87673044
-1.326193 2.1316781 0.88101792
-1.3293873 2.1295133 0.88504267
-1.3319721 2.1268783 0.88829899
-1.3345501 2.1242499 0.89154577
-1.3371187 2.121628 0.89478207
-1.2780327 2.1345491 0.82794929
-1.2873304 2.1369143 0.83962417
-1.2939401 2.137243 0.84792328
-1.3000596 2.1372232 0.85560775
-1.304871 2.1362152 0.8616488
-1.3093876 2.134999 0.86731958
-1.3135874 2.1335592 0.87259316
-1.3170202 2.131536 0.87690425
-1.3204402 2.1295211 0.88119817
-1.3236157 2.1273279 0.885185
-1.3262128 2.124692 0.88844657
-1.271528 2.1319301 0.82738256
-1.2815896 2.1348641 0.83997512
-1.2881427 2.1351333 0.84817719
-1.2942903 2.1351211 0.8558712
-1.2990698 2.1340742 0.86185241
-1.3036067 2.1328621 0.86753154
-1.307786 2.131393 0.87276268
-1.3112352 2.1293712 0.87707973
-1.3146706 2.1273561 0.88137865
-1.317826 2.1251361 0.88532805
-1.3204349 2.122499 0.88859272
-1.3230364 2.1198692 0.89184904
-1.265 2.129303 0.82681441
-1.2751422 2.132277 0.83946681
-1.2823272 2.1330171 0.8484304
-1.2885031 2.1330121 0.85613441
-1.293251 2.131927 0.86205864
-1.2978095 2.1307192 0.86774492
-1.3019669 2.129221 0.87293172
-1.305432 2.1271992 0.87725449
-1.308883 2.125185 0.88155985
-1.312018 2.1229382 0.88546991
-1.3146396 2.1203001 0.88874149
-1.3172535 2.1176691 0.89200139
-1.258454 2.1266689 0.82625222
-1.2686436 2.1296582 0.83892226
-1.2760165 2.1305251 0.84809041
-1.2826558 2.1308632 0.85634661
-1.287414 2.1297731 0.86226344
-1.2919942 2.1285682 0.86795783
-1.2961302 2.1270411 0.87310171
-1.2996113 2.12502 0.87742996
-1.3030791 2.1230071 0.881742
-1.3061931 2.1207333 0.88561463
-1.3088269 2.118094 0.8888886
-1.3114523 2.1154611 0.89215398
-1.3140048 2.1127841 0.89532709
-1.2518754 2.1240201 0.82567716
-1.2621251 2.1270332 0.83838034
-1.2696811 2.1280231 0.84774542
-1.2763543 2.12837 0.85601711
-1.2813907 2.127481 0.86225843
-1.2861619 2.1264119 0.86817193
-1.2902764 2.124855 0.87327194
-1.2937731 2.1228352 0.87760663
-1.2972569 2.1208231 0.88192415
-1.3003508 2.1185212 0.88575888
-1.3029962 2.115881 0.88903761
-1.3056347 2.1132481 0.89230728
-1.245038 2.121182 0.82481027
-1.2555779 2.1243951 0.8378315
-1.2633245 2.1255131 0.84740067
-1.2700307 2.1258681 0.85568595
-1.2751638 2.1250401 0.86202669
-1.2799919 2.124001 0.86799192
-1.2842889 2.1225719 0.87330079
-1.2878985 2.1206291 0.87776065
-1.291417 2.1186321 0.88210702
-1.2944896 2.116302 0.88590312
-1.2971482 2.1136611 0.88918638
-1.2997987 2.1110272 0.89246106
-1.2379544 2.118165 0.82366896
-1.2490089 2.121748 0.83728123
-1.2569456 2.1229939 0.84705448
-1.2636876 2.1233602 0.85535622
-1.2689189 2.122592 0.86179805
-1.2737715 2.1215582 0.86777449
-1.278131 2.1201639 0.87314272
-1.2817575 2.118221 0.87760854
-1.2853731 2.1162882 0.88206005
-1.288525 2.1140091 0.88594103
-1.2912345 2.1113982 0.88927841
-1.293936 2.1087942 0.8926053
-1.2964315 2.10604 0.89567852
-1.2308428 2.1151361 0.82252526
-1.2424203 2.119096 0.83673692
-1.2505441 2.1204662 0.84670734
-1.2573198 2.120841 0.85502481
-1.2626514 2.1201363 0.86156774
-1.2675277 2.1191051 0.86755347
-1.2719523 2.1177492 0.87298393
-1.275599 2.115809 0.87746048
-1.27923 2.1138749 0.88191676
-1.2824249 2.111618 0.88583803
-1.2851491 2.1090059 0.88918138
-1.2878649 2.1064019 0.89251471
-1.2904079 2.1036751 0.8956368
-1.2236981 2.1120939 0.82137442
-1.2358024 2.1164291 0.83618236
-1.244121 2.117929 0.84635925
-1.2509301 2.1183131 0.85469007
-1.2563608 2.1176691 0.86133432
-1.2612635 2.1166441 0.86733198
-1.2657531 2.115325 0.87282515
-1.2694176 2.1133862 0.87730837
-1.2730677 2.111454 0.88177323
-1.2763062 2.1092191 0.88573599
-1.2790437 2.106607 0.88908529
-1.2817719 2.104001 0.89242268
-1.2843488 2.101289 0.89557433
-1.2863312 2.0981193 0.89800024
-1.2165252 2.1090391 0.82021809
-1.2291604 2.113754 0.83562708
-1.2376727 2.1153822 0.84600711
-1.244519 2.115777 0.85435605
-1.2500508 2.1151962 0.8611021
-1.2549779 2.1141751 0.86710978
-1.2595333 2.1128931 0.87266588
-1.2632155 2.1109552 0.87715626
-1.2668847 2.109025 0.88162923
-1.2701671 2.106813 0.88563275
-1.2729173 2.1041989 0.8889873
-1.2756599 2.101593 0.89233041
-1.2782687 2.0988951 0.89551139
-1.2093253 2.1059742 0.81906271
-1.2224966 2.1110702 0.83507299
-1.2312018 2.1128271 0.84565401
-1.2380849 2.1132321 0.85401964
-1.2437197 2.1127141 0.86086893
-1.2486694 2.1116972 0.86688519
-1.2532922 2.1104522 0.87250566
-1.256995 2.1085172 0.87700534
-1.2606797 2.1065881 0.88148355
-1.2640084 2.1043983 0.88552999
-1.2667718 2.1017842 0.88888907
-1.2695278 2.0991771 0.89223957
-1.2721672 2.0964932 0.89544749
-1.2020966 2.1028972 0.81790447
-1.215807 2.108376 0.83451557
-1.2247097 2.1102619 0.84530139
-1.2316267 2.1106782 0.85368252
-1.2373639 2.1102221 0.86063337
-1.2423429 2.1092119 0.86666489
-1.2470304 2.1080041 0.87234354
-1.2507508 2.10607 0.8768518
-1.2544547 2.1041431 0.88133955
-1.2578275 2.101975 0.88542557
-1.2606058 2.0993609 0.8887918
-1.263375 2.0967531 0.89214683
-1.2660481 2.0940843 0.89538455
-1.1948261 2.0997982 0.81672621
-1.2090888 2.105669 0.833951
-1.2181946 2.1076891 0.84494805
-1.225147 2.1081142 0.8533442
-1.2309884 2.1077232 0.86039829
-1.2359908 2.1067162 0.86643791
-1.2407489 2.1055481 0.87218475
-1.2444845 2.1036141 0.87669659
-1.2482092 2.1016891 0.88119388
-1.2516274 2.099546 0.88532209
-1.2544173 2.0969291 0.88869143
-1.257202 2.0943222 0.89205432
-1.1875339 2.096694 0.81555486
-1.2023492 2.1029541 0.83338952
-1.2116544 2.1051061 0.84459043
-1.2186455 2.1055422 0.85300446
-1.2245908 2.1052151 0.86016154
-1.229619 2.1042142 0.86621356
-1.2344428 2.1030822 0.87201953
-1.2382008 2.101151 0.87654352
-1.2419432 2.0992281 0.88104939
-1.2454062 2.0971069 0.88521743
-1.2482115 2.0944901 0.88859487
-1.251008 2.091881 0.8919611
-1.2537458 2.0892401 0.89525557
-1.180207 2.093574 0.81437516
-1.195585 2.1002302 0.83282566
-1.2050931 2.1025143 0.84423304
-1.2121193 2.1029601 0.85266399
-1.2181712 2.1026981 0.85992479
-1.2232252 2.1017022 0.86598802
-1.2281184 2.1006103 0.87186003
-1.2318935 2.0986791 0.87638927
-1.2356557 2.0967581 0.88090253
-1.2391649 2.09466 0.88511324
-1.2419825 2.092042 0.8884933
-1.2447946 2.0894332 0.89186716
-1.2475665 2.0868073 0.89519286
-1.1728466 2.0904369 0.81318569
-1.1887944 2.0974941 0.83225775
-1.198508 2.0999131 0.84387445
-1.2055714 2.1003699 0.8523221
-1.2117298 2.100173 0.85968781
-1.2168086 2.0991812 0.86576009
-1.2217718 2.0981281 0.87169647
-1.2255676 2.0962009 0.87623644
-1.229346 2.0942802 0.88075519
-1.2329031 2.092206 0.88500881
-1.2357347 2.0895872 0.88839531
-1.2385601 2.0869761 0.89177394
-1.2413648 2.0843654 0.89512873
-1.1654642 2.0872951 0.81200385
-1.1819818 2.0947511 0.83169246
-1.191901 2.0973041 0.84351683
-1.1989998 2.0977702 0.85197854
-1.2052665 2.09764 0.85944963
-1.2103698 2.096653 0.86553335
-1.2154043 2.0956392 0.87153435
-1.2192184 2.0937121 0.87608075
-1.2230157 2.0917931 0.8806076
-1.2266177 2.0897412 0.88490152
-1.2294663 2.0871243 0.88829708
-1.2323043 2.0845122 0.89167953
-1.235134 2.0819082 0.89505267
-1.2372047 2.0787244 0.89752126
-1.1580424 2.0841341 0.81080627
-1.1751366 2.0919921 0.83111811
-1.1852689 2.094686 0.84315634
-1.1924038 2.095161 0.85163403
-1.1987789 2.0950961 0.85920811
-1.2039098 2.0941153 0.86530566
-1.209012 2.0931382 0.87136745
-1.212847 2.0912151 0.87592459
-1.2166643 2.0892982 0.88045931
-1.2203137 2.0872703 0.88479567
-1.2231758 2.0846512 0.88819575
-1.2260284 2.0820394 0.89158559
-1.2288713 2.0794342 0.89496446
-1.1505897 2.08096 0.8096056
-1.1682718 2.0892282 0.83054686
-1.178615 2.0920582 0.84279609
-1.1857853 2.0925431 0.85128903
-1.1922727 2.0925462 0.8589716
-1.1974279 2.0915692 0.86507654
-1.2025548 2.0905972 0.87114882
-1.2064551 2.0887103 0.87576842
-1.2102906 2.0867944 0.88031054
-1.2139888 2.0847912 0.88469052
-1.2168639 2.0821702 0.88809514
-1.2197311 2.0795584 0.89149046
-1.222589 2.0769532 0.89487553
-1.1613773 2.0864501 0.82996893
-1.171932 2.0894172 0.84242964
-1.1791428 2.0899153 0.85094118
-1.185739 2.0899842 0.85872769
-1.1909215 2.0890131 0.86484647
-1.196076 2.0880461 0.87092996
-1.2000411 2.0861962 0.87561059
-1.2038959 2.0842822 0.88016248
-1.2076414 2.082303 0.88458323
-1.2105304 2.0796812 0.8879931
-1.2134118 2.0770683 0.89139533
-1.2162843 2.0744634 0.89478588
-1.1544592 2.0836642 0.82939219
-1.1652309 2.0867722 0.84206772
-1.1724772 2.0872793 0.85059309
-1.1791857 2.0874162 0.85848689
-1.1843944 2.0864491 0.86461592
-1.1895742 2.0854874 0.87071157
-1.1936024 2.083672 0.87545061
-1.1974795 2.0817623 0.8800118
-1.2012727 2.0798063 0.88447547
-1.2041775 2.0771852 0.8878932
-1.2070735 2.0745711 0.89130092
-1.2099588 2.0719652 0.89469695
-1.2121519 2.0688334 0.89727759
-1.1475143 2.0808663 0.82881236
-1.1585026 2.0841141 0.84170103
-1.1657875 2.0846334 0.85024428
-1.1726079 2.0848372 0.85824394
-1.1778439 2.0838761 0.86438417
-1.1830502 2.0829191 0.87049007
-1.1871467 2.0811434 0.87529564
-1.1910412 2.0792322 0.87986255
-1.194882 2.0773013 0.88436723
-1.1978008 2.0746794 0.88779163
-1.2007117 2.0720654 0.89120531
-1.2036128 2.0694585 0.89460707
-1.1405404 2.0780563 0.828228
-1.1516991 2.0814092 0.84127235
-1.1590731 2.0819762 0.84989333
-1.1660104 2.0822511 0.85800266
-1.1712701 2.0812941 0.86415243
-1.1765034 2.0803432 0.8702693
-1.1806654 2.0786023 0.87513518
-1.1845802 2.0766952 0.87971234
-1.1884718 2.0747881 0.88426113
-1.1914053 2.0721662 0.88769102
-1.1943291 2.0695503 0.89110923
-1.1972451 2.0669432 0.89451671
-1.1995009 2.0638394 0.89715505
-1.1335442 2.0752382 0.8276453
-1.1447618 2.0786123 0.84071589
-1.152336 2.0793114 0.84954143
-1.1593854 2.0796542 0.85775685
-1.1646739 2.0787032 0.86391878
-1.1699338 2.0777574 0.87004757
-1.1741648 2.076055 0.87497783
-1.178098 2.0741482 0.87956095
-1.1820157 2.0722482 0.88412523
-1.1849868 2.0696435 0.88758826
-1.1879261 2.0670273 0.89101267
-1.1908554 2.0644193 0.89442611
-1.1265218 2.0724101 0.82706094
-1.137798 2.0758052 0.84015703
-1.1455739 2.0766363 0.84918833
-1.1527393 2.0770483 0.85751128
-1.1580552 2.0761032 0.86368585
-1.1633415 2.0751622 0.86982512
-1.1676399 2.0734982 0.87481833
-1.1715928 2.0715923 0.87940907
-1.1755304 2.0696955 0.88398218
-1.1785476 2.0671134 0.88748646
-1.1815002 2.0644963 0.89091539
-1.1844442 2.0618873 0.89433622
-1.1194687 2.0695682 0.8264699
-1.1308086 2.0729871 0.83959723
-1.1387872 2.0739522 0.84883356
-1.1460705 2.0744352 0.85726643
-1.1514127 2.0734942 0.86345005
-1.1567266 2.0725582 0.86960196
-1.1610925 2.0709324 0.87465692
-1.1650653 2.0690293 0.87925673
-1.1690229 2.0671334 0.88383722
-1.1720846 2.0645723 0.88738275
-1.1123896 2.0667162 0.82587671
-1.1237919 2.0701585 0.83903432
-1.1319761 2.0712571 0.84847856
-1.139375 2.0718093 0.85701609
-1.1447463 2.0708752 0.86321473
-1.1500875 2.0699453 0.86937785
-1.1545235 2.0683584 0.87449694
-1.1585162 2.0664563 0.87910438
-1.162493 2.0645623 0.88369322
-1.1656013 2.0620253 0.88728046
-1.1685848 2.0594072 0.89072251
-1.105181 2.0637774 0.82516456
-1.1167493 2.0673194 0.83846927
-1.1251411 2.0685544 0.84812164
-1.1326001 2.0691323 0.85670161
-1.1380576 2.0682473 0.86297798
-1.1434251 2.0673232 0.86915278
-1.1479309 2.0657744 0.87433577
-1.151944 2.0638742 0.87895107
-1.1559415 2.0619822 0.88354802
-1.1590961 2.0594683 0.88717675
-1.0975451 2.0605323 0.82399058
-1.109679 2.0644693 0.83790183
-1.1182809 2.0658393 0.84776306
-1.1257792 2.0664303 0.85635996
-1.1313441 2.0656114 0.86274123
-1.1367404 2.0646913 0.86892724
-1.141317 2.0631814 0.87417316
-1.14535 2.0612843 0.87879753
-1.1493666 2.0593944 0.88340282
-1.1525674 2.0569034 0.8870728
-1.1555804 2.0542843 0.89052653
-1.0899408 2.0573213 0.82288647
-1.1025832 2.0616083 0.83733368
-1.1113946 2.0631163 0.84740353
-1.1189318 2.0637174 0.8560164
-1.1246088 2.0629654 0.86250305
-1.1300313 2.0620513 0.86870074
-1.1346781 2.0605803 0.87401104
-1.1387318 2.0586843 0.87864351
-1.1427698 2.0567963 0.88325739
-1.146018 2.0543294 0.88696861
-1.0823026 2.0540953 0.82177591
-1.095474 2.0587482 0.83677936
-1.1044848 2.0603824 0.8470428
-1.1120615 2.0609953 0.85567284
-1.1178482 2.0603094 0.86226463
-1.1232989 2.0594013 0.86847258
-1.1280179 2.0579693 0.87384748
-1.1320922 2.0560763 0.87848806
-1.1361492 2.0541902 0.88311028
-1.1394446 2.0517464 0.88686371
-1.0746348 2.0508573 0.82066512
-1.088356 2.0558903 0.83624363
-1.0975578 2.0576453 0.84668922
-1.1051662 2.0582633 0.85532784
-1.1110642 2.0576444 0.86202478
-1.1165433 2.0567422 0.86824512
-1.1213343 2.0553503 0.87368417
-1.1254292 2.0534582 0.87833285
-1.1295068 2.0515742 0.88296318
-1.066932 2.0476043 0.81954598
-1.081214 2.0530224 0.83570743
-1.0906174 2.0549064 0.84634948
-1.0982511 2.0555253 0.85498857
-1.1042557 2.0549703 0.86178422
-1.1097624 2.0540733 0.86801577
-1.1146264 2.0527215 0.87352014
-1.1187425 2.0508323 0.87817764
-1.1228411 2.0489502 0.88281608
-1.1262324 2.0465534 0.88665414
-1.1293056 2.0439324 0.89013219
-1.0592 2.0443392 0.81842589
-1.0740416 2.0501423 0.83516788
-1.0836542 2.0521603 0.84601045
-1.0913284 2.0527902 0.85466647
-1.0974336 2.0522933 0.86155272
-1.1029606 2.0513964 0.86778831
-1.1078959 2.0500832 0.87335491
-1.1120327 2.0481963 0.87802076
-1.1161523 2.0463164 0.88266802
-1.119592 2.0439434 0.8865478
-1.1226807 2.0413222 0.89003253
-1.0514345 2.0410614 0.81730247
-1.066843 2.0472522 0.83462715
-1.0766647 2.0494022 0.84566855
-1.084378 2.0500443 0.85434198
-1.090595 2.0496135 0.86133122
-1.0961466 2.0487194 0.86757302
-1.1011472 2.0474415 0.87319589
-1.1053016 2.0455532 0.87786722
-1.1094394 2.0436733 0.88251925
-1.1129282 2.0413253 0.88644171
-1.1160333 2.0387034 0.88993192
-1.1191278 2.0360885 0.89341116
-1.0436316 2.0377665 0.81616879
-1.0596187 2.0443513 0.83408451
-1.0696464 2.0466323 0.84532237
-1.0774026 2.0472875 0.85401583
-1.0837269 2.0469203 0.86110306
-1.0893095 2.0460334 0.86735916
-1.094383 2.0447943 0.87304449
-1.0985553 2.0429072 0.87772059
-1.1027138 2.0410285 0.88238072
-1.1062481 2.0387013 0.88634253
-1.1093669 2.0360785 0.88983655
-1.0357895 2.0344524 0.8150239
-1.0523634 2.0414374 0.83353829
-1.0626092 2.0438573 0.84498239
-1.0704048 2.0445232 0.85369062
-1.0768387 2.0442204 0.86087799
-1.0824482 2.0433383 0.86714458
-1.0875921 2.0421374 0.87289047
-1.0917892 2.0402532 0.87757778
-1.0959682 2.0383773 0.88224626
-1.0995491 2.0360723 0.88624573
-1.1026819 2.0334473 0.88974643
-1.0279219 2.0311303 0.81388402
-1.0450807 2.0385132 0.83298922
-1.0555398 2.0410683 0.84463501
-1.0633786 2.0417473 0.85336256
-1.0699239 2.0415092 0.86064982
-1.0755665 2.0406363 0.86693239
-1.0807793 2.0394702 0.87273622
-1.0849955 2.0375884 0.87743044
-1.0891957 2.0357144 0.88210773
-1.0928242 2.0334325 0.88614845
-1.020016 2.0277915 0.8127346
-1.0377734 2.0355792 0.83244252
-1.0484507 2.0382724 0.84429193
-1.0563285 2.0389614 0.85303402
-1.0629871 2.0387912 0.86042404
-1.068656 2.0379214 0.86671591
-1.0739446 2.0367973 0.8725841
-1.0781817 2.0349164 0.87728715
-1.0824025 2.0330443 0.88197088
-1.0860786 2.0307844 0.88605165
-1.0892441 2.0281594 0.88956428
-1.0120754 2.0244374 0.81158018
-1.0304329 2.0326304 0.83188725
-1.041332 2.0354643 0.8439436
-1.0492513 2.0361652 0.85270476
-1.0560246 2.0360613 0.86019611
-1.0617206 2.0351963 0.86649799
-1.0670824 2.0341125 0.87242913
-1.0713427 2.0322344 0.87714219
-1.0755854 2.0303645 0.88183403
-1.0793087 2.0281286 0.88595319
-1.0041072 2.0210733 0.81042767
-1.0230672 2.0296733 0.83133292
-1.0341878 2.0326452 0.84359479
-1.0421493 2.0333595 0.85237288
-1.0490355 2.0333214 0.8599658
-1.0547636 2.0324645 0.86628246
-1.0601981 2.0314183 0.87227488
-1.0644796 2.0295434 0.87699533
-1.0687428 2.0276744 0.88169503
-1.0725162 2.0254614 0.88585615
-1.0757134 2.0228355 0.88938093
-1.0156748 2.0267065 0.83078003
-1.0270183 2.0298176 0.84324694
-1.0350196 2.0305424 0.85204053
-1.0420225 2.0305734 0.8597362
-1.0477786 2.0297203 0.86606216
-1.0532887 2.0287144 0.87211895
-1.0575922 2.0268414 0.87684751
-1.061877 2.0249753 0.88155746
-1.0656991 2.0227866 0.8857584
-1.0082514 2.0237246 0.83022141
-1.0198181 2.0269766 0.84289169
-1.027864 2.0277145 0.85170698
-1.0349836 2.0278134 0.85950446
-1.0407703 2.0269685 0.86584425
-1.046355 2.0260015 0.87196255
-1.0506799 2.0241303 0.87669992
-1.0549872 2.0222673 0.8814187
-1.0588577 2.0201006 0.88565826
-1.062088 2.0174735 0.88919663
-1.0007989 2.0207314 0.82965946
-1.0125949 2.0241275 0.8425405
-1.0206826 2.0248775 0.85137129
-1.0279191 2.0250444 0.85927224
-1.0337377 2.0242054 0.86562562
-1.0393972 2.0232794 0.87180543
-1.0437441 2.0214114 0.8765521
-1.0480731 2.0195494 0.88127851
-1.0519936 2.0174065 0.88555908
-0.99331594 2.0177264 0.82909536
-1.0053437 2.0212665 0.8421855
-1.0134742 2.0220294 0.85103512
-1.0208313 2.0222654 0.85904121
-1.0266786 2.0214334 0.86540556
-1.032414 2.0205464 0.8716476
-1.036782 2.0186796 0.87640166
-1.0411344 2.0168223 0.88113856
-1.0451071 2.0147033 0.88546157
-1.0483682 2.0120754 0.88901138
-1.051621 2.0094564 0.89255118
-0.98580718 2.0147123 0.82853222
-0.99806714 2.0183964 0.84183121
-1.0062397 2.0191703 0.85069776
-1.0137165 2.0194774 0.85880828
-1.0195942 2.0186505 0.86518431
-1.025408 2.0178056 0.87149048
-1.029798 2.0159416 0.87625408
-1.0341718 2.0140853 0.88099837
-1.0381939 2.0119905 0.88536167
-1.0414729 2.0093625 0.8889184
-1.0447416 2.0067425 0.89246535
-0.97826886 2.0116854 0.82796669
-0.99076176 2.0155134 0.84147358
-0.99897766 2.0163014 0.85035849
-1.0065734 2.0166764 0.85857153
-1.0124848 2.0158575 0.86496234
-1.0183606 2.0150435 0.87131691
-1.0227885 2.0131915 0.87610412
-1.0271842 2.0113385 0.88085794
-1.0312567 2.0092673 0.88526082
-1.0345526 2.0066395 0.88882518
-1.0378382 2.0040195 0.89237714
-1.0409091 2.0012546 0.89569807
-0.97070193 2.0086474 0.82739854
-0.98327088 2.0125074 0.84094524
-0.99168944 2.0134215 0.85001802
-0.99940896 2.0138683 0.85833883
-1.0053487 2.0130544 0.86473918
-1.0112555 2.0122466 0.87110662
-1.0157523 2.0104313 0.8759532
-1.0201726 2.0085826 0.8807168
-1.0242963 2.0065355 0.8851614
-1.0276098 2.0039074 0.88873148
-1.0309117 2.0012865 0.89229035
-0.96310282 2.0055954 0.8268261
-0.97574139 2.0094814 0.84040332
-0.98437333 2.0105305 0.84967637
-0.99221563 2.0110483 0.85810137
-0.99818683 2.0102425 0.86451674
-1.0041244 2.0094395 0.87089443
-1.0086935 2.0076635 0.87580252
-1.013135 2.0058165 0.88057494
-1.0173113 2.0037944 0.88506126
-1.0206404 2.0011644 0.88863611
-1.0239596 1.9985445 0.89220238
-0.95547485 2.0025334 0.8262527
-0.96818256 2.0064435 0.83985949
-0.97703028 2.0076294 0.84933448
-0.98499656 2.0082173 0.85786366
-0.99099898 2.0074184 0.86429167
-0.9969666 2.0066223 0.87068176
-1.0016079 2.0048854 0.87565184
-1.0060735 2.0030403 0.88043261
-1.0103009 2.0010424 0.88495898
-1.0136476 1.9984134 0.88854265
-1.016983 1.9957925 0.89211416
-1.0201631 1.9930724 0.89551997
-0.94781446 1.9994564 0.82567453
-0.96059299 2.0033934 0.83931327
-0.969661 2.0047174 0.84899116
-0.97775292 2.0053785 0.85762691
-0.98378539 2.0045855 0.86406612
-0.98978496 2.0037966 0.87046957
-0.9944973 2.0020964 0.87549925
-0.99898577 2.0002534 0.88028908
-1.0032649 1.9982804 0.88485622
-1.0066307 1.9956524 0.88844824
-1.0099831 1.9930315 0.89202619
-0.93984389 1.9961674 0.82479668
-0.95297456 2.0003324 0.83876467
-0.96226215 2.0017943 0.84864545
-0.97048235 2.0025296 0.85738993
-0.97654533 2.0017414 0.86384058
-0.98257589 2.0009584 0.87025571
-0.98736405 1.9992985 0.87534904
-0.99187279 1.9974585 0.88014555
-0.99620795 1.9955105 0.8847568
-0.9995873 1.9928805 0.88835216
-1.0029576 1.9902594 0.89193726
-0.93159223 1.9926875 0.82365179
-0.94532704 1.9972595 0.83821583
-0.95483708 1.9988605 0.84829974
-0.96318269 1.9996674 0.85714841
-0.96927834 1.9988874 0.86361313
-0.97534013 1.9981115 0.87004042
-0.98020124 1.9964894 0.87519479
-0.98473525 1.9946524 0.88000178
-0.98912358 1.9927305 0.88465548
-0.99251986 1.9900994 0.88825703
-0.92371559 1.9894865 0.82293773
-0.9376483 1.9941734 0.83766246
-0.9473834 1.9959145 0.84795117
-0.9558444 1.9967865 0.85689402
-0.96198583 1.9960225 0.8633852
-0.96807861 1.9952534 0.86982512
-0.97301459 1.9936705 0.87504148
-0.97757125 1.9918364 0.87985706
-0.98201466 1.9899404 0.88455415
-0.91743445 1.9874295 0.82393432
-0.92994022 1.9910754 0.83710814
-0.93990135 1.9929584 0.84760189
-0.94840717 1.9938425 0.85656309
-0.95466614 1.9931475 0.8631568
-0.96079135 1.9923844 0.86960983
-0.96580219 1.9908425 0.87488747
-0.97038174 1.9890105 0.87971306
-0.97487974 1.9871395 0.88445067
-0.91113377 1.9853665 0.82493067
-0.92264557 1.9882824 0.83701801
-0.93239141 1.9899914 0.84725165
-0.94094205 1.9908885 0.85623097
-0.94732022 1.9902614 0.8629272
-0.95347691 1.9895054 0.86939216
-0.95856285 1.9880035 0.87473273
-0.96316671 1.9861734 0.87956715
-0.96771765 1.9843284 0.88434529
-0.87434101 1.9670455 0.794034
-0.90460968 1.9831494 0.82571292
-0.91598463 1.9859484 0.83761787
-0.92498064 1.9871044 0.84703422
-0.93344975 1.9879235 0.85589767
-0.93994737 1.9873664 0.86269832
-0.94613552 1.9866165 0.86917424
-0.95129776 1.9851544 0.87457776
-0.95592523 1.9833275 0.87942123
-0.96053338 1.9815085 0.88424349
-0.96400023 1.9788774 0.88787198
-0.87057352 1.9668216 0.79781628
-0.89787889 1.9807935 0.82630086
-0.90930557 1.9836104 0.83822203
-0.9181695 1.9846535 0.84746885
-0.92605233 1.9850354 0.85569167
-0.93254566 1.9844584 0.86246634
-0.93876696 1.9837165 0.86895561
-0.94400668 1.9822944 0.87442279
-0.94865823 1.9804704 0.87927485
-0.95328999 1.9786545 0.88410664
-0.95680571 1.9760464 0.88777447
-0.96028161 1.9734256 0.8914001
-0.86679935 1.9665946 0.80159402
-0.89112926 1.9784315 0.82689166
-0.9026053 1.9812624 0.83882523
-0.91133451 1.9821914 0.84790158
-0.91925287 1.9825834 0.85613608
-0.92536521 1.9817184 0.86249065
-0.93137145 1.9808054 0.86873674
-0.93668914 1.9794245 0.87426662
-0.94136477 1.9776034 0.87912703
-0.94602013 1.9757905 0.88396811
-0.94958711 1.9732065 0.88767791
-0.95307899 1.9705845 0.89130902
-0.8630085 1.9663556 0.8053565
-0.88435531 1.9760594 0.82748127
-0.89588618 1.9789095 0.83943224
-0.90448117 1.9797264 0.84834003
-0.91243696 1.9801275 0.85658479
-0.91846848 1.9791894 0.86283636
-0.92437911 1.9781934 0.868963
-0.92944765 1.9766184 0.87421608
-0.93404436 1.9747266 0.8789804
-0.9387238 1.9729155 0.88382983
-0.94234252 1.9703555 0.88758063
-0.94585276 1.9677336 0.89121795
-0.94935155 1.9651196 0.89484406
-0.85918927 1.9660985 0.80909157
-0.87756395 1.9736825 0.82807469
-0.88914728 1.9765484 0.84003973
-0.89760518 1.9772514 0.84877777
-0.90557957 1.9776485 0.85701585
-0.91154981 1.9766525 0.8631835
-0.91748953 1.9756626 0.86931872
-0.92250395 1.9740347 0.87449884
-0.9270401 1.9720846 0.87918496
-0.9315567 1.9701437 0.88385081
-0.9350996 1.9675157 0.88751149
-0.93859935 1.9648727 0.89112711
-0.85289836 1.9641066 0.81028509
-0.87075114 1.9712976 0.82866859
-0.88238859 1.9741817 0.84065008
-0.89070749 1.9747686 0.84921646
-0.89861202 1.9750997 0.85735536
-0.90461087 1.9741087 0.86353278
-0.91057777 1.9731227 0.86967659
-0.91553521 1.9714407 0.87478161
-0.92009306 1.9694936 0.87947416
-0.92463374 1.9675556 0.88415003
-0.92812538 1.9648787 0.88774538
-0.93158746 1.9621956 0.8913095
-0.84639549 1.9619737 0.81127977
-0.86391926 1.9689057 0.8292644
-0.87560797 1.9718066 0.84126163
-0.88378835 1.9722787 0.84965706
-0.89161968 1.9725407 0.85769415
-0.8976469 1.9715557 0.86388087
-0.90364456 1.9705766 0.87003613
-0.90854383 1.9688387 0.87506366
-0.91312385 1.9668937 0.87976432
-0.91764069 1.9649256 0.88440037
-0.92112803 1.9622327 0.88797927
-0.83988094 1.9598377 0.8122828
-0.8570683 1.9665087 0.82986498
-0.86868453 1.9693377 0.841748
-0.87684822 1.9697807 0.85009956
-0.88460755 1.9699757 0.85803699
-0.89066172 1.9689937 0.86423087
-0.89669013 1.9680216 0.87039757
-0.9015305 1.9662287 0.87534928
-0.90613317 1.9642867 0.88005733
-0.91060233 1.9622697 0.88462853
-0.91410804 1.9595777 0.88821507
-0.83334208 1.9576917 0.81328154
-0.8501935 1.9641027 0.83046436
-0.86168551 1.9668227 0.84218168
-0.86988401 1.9672737 0.85054135
-0.87757134 1.9674007 0.85837936
-0.88365626 1.9664257 0.86458325
-0.88971233 1.9654586 0.87075877
-0.8944943 1.9636097 0.87563419
-0.89911819 1.9616697 0.8803494
-0.90354323 1.9596087 0.88486171
-0.90706563 1.9569157 0.88845277
-0.91057754 1.9542317 0.89203405
-0.82679582 1.9555467 0.81429338
-0.8433001 1.9616886 0.83106613
-0.85466218 1.9642987 0.84261441
-0.86290002 1.9647597 0.85098624
-0.87051082 1.9648167 0.85872102
-0.87662363 1.9638467 0.86493373
-0.88271141 1.9628876 0.87112141
-0.88743472 1.9609827 0.87592173
-0.89208198 1.9590456 0.88064361
-0.8964591 1.9569356 0.88509274
-0.89999914 1.9542437 0.88868999
-0.90352654 1.9515587 0.89227557
-0.82022452 1.9533907 0.81529999
-0.83638477 1.9592687 0.83167052
-0.84761715 1.9617667 0.8430481
-0.85589433 1.9622387 0.85143375
-0.86343098 1.9622266 0.85906696
-0.86957145 1.9612616 0.8652885
-0.87566566 1.9602917 0.87146091
-0.88035345 1.9583477 0.87621045
-0.88502192 1.9564127 0.88093972
-0.88935137 1.9542547 0.88532424
-0.89290905 1.9515626 0.88892841
-0.89645433 1.9488777 0.89251947
-0.89973474 1.9460187 0.89584374
-0.81363583 1.9512297 0.81630874
-0.82944894 1.9568406 0.83227563
-0.84054995 1.9592277 0.84348488
-0.84886742 1.9597096 0.8518815
-0.85632539 1.9596267 0.85941267
-0.86249757 1.9586676 0.86564493
-0.86853719 1.9576436 0.87174273
-0.87324786 1.9557027 0.87649846
-0.87794065 1.9537706 0.88123631
-0.88222051 1.9515657 0.88555861
-0.88579512 1.9488727 0.88916779
-0.88935876 1.9461887 0.89276624
-0.8070302 1.9490627 0.81732178
-0.82249284 1.9544057 0.8328836
-0.83346105 1.9566797 0.84392262
-0.84181809 1.9571737 0.85233283
-0.8491981 1.9570177 0.85975933
-0.85540056 1.9560667 0.86600161
-0.86138558 1.9549887 0.87202454
-0.86611867 1.9530497 0.87678885
-0.8708353 1.9511217 0.88153481
-0.87506604 1.9488677 0.88579273
-0.87865663 1.9461737 0.88940597
-0.8822403 1.9434907 0.89301348
-0.80040646 1.9468896 0.81833768
-0.81551623 1.9519637 0.83349419
-0.82634902 1.9541237 0.84436035
-0.8347466 1.9546287 0.85278416
-0.84204674 1.9544007 0.86010671
-0.84828162 1.9534566 0.86636043
-0.85421062 1.9523246 0.87230825
-0.8589642 1.9503877 0.87707758
-0.8637073 1.9484627 0.88183403
-0.86788654 1.9461597 0.88602757
-0.87149525 1.9434657 0.88964701
-0.79376531 1.9447117 0.81935596
-0.80851722 1.9495146 0.83410501
-0.81921411 1.9515597 0.8448
-0.82765293 1.9520757 0.85323715
-0.83487439 1.9517767 0.86045742
-0.84113789 1.9508377 0.86672068
-0.84701037 1.9496517 0.87259245
-0.85178781 1.9477167 0.87736893
-0.85655379 1.9457957 0.8821342
-0.86068416 1.9434427 0.88626313
-0.78710485 1.9425267 0.8203764
-0.80149746 1.9470577 0.83471823
-0.81205487 1.9489866 0.84524012
-0.82053471 1.9495146 0.8536911
-0.8276763 1.9491427 0.86080766
-0.83397245 1.9482107 0.8670814
-0.83978748 1.9469687 0.87287736
-0.84459019 1.9450377 0.8776629
-0.84937835 1.9431187 0.88243532
-0.85345626 1.9407167 0.8864994
-0.75623631 1.9291537 0.7973702
-0.78042769 1.9403367 0.82140017
-0.79445624 1.9445927 0.83533454
-0.80487585 1.9464067 0.84568453
-0.81339574 1.9469447 0.85414672
-0.82045412 1.9464997 0.86115837
-0.82678342 1.9455757 0.86744428
-0.8325398 1.9442776 0.87316227
-0.83736658 1.9423507 0.87795758
-0.84217906 1.9404347 0.8827374
-0.846205 1.9379807 0.88673568
