# .PCD v0.7 - Point Cloud Data file format
VERSION 0.7
FIELDS x y z
SIZE 4 4 4
TYPE F F F
COUNT 1 1 1
WIDTH 1491
HEIGHT 1
VIEWPOINT 0 0 0 1 0 0 0
POINTS 1491
DATA ascii
-0.43308651 3.3929718 0.83488762
-0.42370161 3.3915799 0.82957077
-0.41529286 3.3894658 0.82511795
-0.61133641 3.1999683 1.0143633
-0.6097061 3.1937602 1.0155739
-0.60775691 3.1877744 1.0165073
-0.60579622 3.1818035 1.0174286
-0.60133255 3.1775162 1.0161961
-0.59591627 3.1738572 1.0141492
-0.59048873 3.1701915 1.0120972
-0.58505148 3.166518 1.0100429
-0.57914823 3.1631374 1.0075945
-0.57289779 3.1599686 1.0048556
-0.57206136 3.1532452 1.0067416
-0.57274741 3.1455464 1.0099212
-0.57343107 3.1378698 1.0130907
-0.57411307 3.1302149 1.016251
-0.5697915 3.1257915 1.0151548
-0.56351691 3.1226087 1.0124061
-0.55671132 3.119745 1.0092139
-0.54956776 3.1170733 1.005744
-0.54240131 3.114393 1.0022622
-0.53521103 3.1117041 0.9987694
-0.49818826 3.1276231 0.97013587
-0.4906154 3.1250422 0.96636778
-0.48229772 3.1228964 0.96198171
-0.47394764 3.1207428 0.95757872
-0.46556494 3.1185803 0.95315832
-0.4571476 3.1164091 0.9487195
-0.44869691 3.1142278 0.94426429
-0.43973762 3.1123254 0.93939263
-0.42997032 3.1108789 0.93385893
-0.42015535 3.1094232 0.92829901
-0.41029152 3.1079607 0.92271072
-0.40037811 3.1064897 0.91709399
-0.38981494 3.1053674 0.91095096
-0.3779974 3.1049421 0.90378118
-0.36610407 3.1045158 0.89656442
-0.35413516 3.1040854 0.88930333
-0.57903099 3.4205971 0.92320281
-0.57819533 3.4133377 0.92527407
-0.57736021 3.4060926 0.92734098
-0.61105663 3.3729129 0.95997334
-0.61375475 3.3631597 0.96511602
-0.61566877 3.3540277 0.96955305
-0.61757469 3.3449323 0.97397172
-0.47872883 3.3997726 0.86869597
-0.46820259 3.3993948 0.86233145
-0.45794302 3.3987823 0.8562147
-0.44868067 3.397413 0.85098416
-0.61218792 3.2136953 1.0174255
-0.61055565 3.2074733 1.0186363
-0.60892719 3.2012582 1.0198457
-0.60729903 3.1950512 1.0210533
-0.60555977 3.1889272 1.0221622
-0.60040158 3.1851118 1.0203373
-0.59498245 3.1814587 1.018294
-0.58955377 3.1777983 1.0162467
-0.58411384 3.1741323 1.0141947
-0.57866323 3.1704581 1.0121387
-0.5732038 3.1667776 1.0100799
-0.5721252 3.1602092 1.0117555
-0.57281077 3.1525002 1.0149267
-0.57349426 3.1448145 1.0180881
-0.57417649 3.1371515 1.0212402
-0.57044733 3.1323512 1.0206486
-0.56417465 3.1291785 1.0179069
-0.55788678 3.1259964 1.0151584
-0.55158192 3.122808 1.0124029
-0.54473895 3.1199403 1.0091993
-0.53756052 3.1172633 1.0057217
-0.50057662 3.1332588 0.97718549
-0.49326667 3.1305335 0.973643
-0.48593476 3.1277981 0.9700914
-0.47830543 3.1252232 0.96629798
-0.46994698 3.1230736 0.9619031
-0.46155304 3.1209149 0.95749009
-0.45312691 3.1187477 0.95305991
-0.44466501 3.1165719 0.94861132
-0.43617117 3.114387 0.9441458
-0.42712533 3.1125047 0.93923056
-0.41730464 3.1110542 0.93368441
-0.40743485 3.109597 0.92810994
-0.39751807 3.1081302 0.92250991
-0.38754863 3.106658 0.91687864
-0.37685153 3.1055772 0.91065878
-0.36496532 3.1051524 0.90347141
-0.35039684 3.1062438 0.89408791
-0.28125343 3.138952 0.83973676
-0.57921392 3.419811 0.93134701
-0.57837999 3.4125633 0.9334082
-0.57754594 3.405329 0.93546468
-0.60925597 3.3736618 0.96622425
-0.61149675 3.3642573 0.97094434
-0.61341387 3.3551283 0.97536701
-0.61532342 3.346034 0.97977161
-0.61666334 3.3373928 0.98366541
-0.61259937 3.227747 1.0201135
-0.61135799 3.2212412 1.0216599
-0.60977554 3.2149804 1.02291
-0.60814548 3.2087619 1.024117
-0.60651845 3.2025483 1.0253228
-0.6035732 3.1972373 1.0253966
-0.59897894 3.1930418 1.0240606
-0.59404862 3.189064 1.0224396
-0.5886175 3.1854105 1.0203955
-0.58317572 3.1817498 1.0183476
-0.57772374 3.1780825 1.0162952
-0.57226068 3.1744089 1.0142393
-0.57233423 3.1670742 1.0168896
-0.57290727 3.1594315 1.0199578
-0.57355732 3.1517582 1.0230832
-0.57423884 3.1440859 1.0262272
-0.5711025 3.138905 1.0261385
-0.56483364 3.1357422 1.023405
-0.55854815 3.13257 1.0206643
-0.55224711 3.1293907 1.0179167
-0.54592967 3.1262023 1.0151621
-0.53959692 3.1230071 1.0124007
-0.50295997 3.1388829 0.98421746
-0.4956629 3.1361694 0.98069263
-0.488341 3.1334469 0.97715485
-0.48099577 3.1307151 0.97360492
-0.47362813 3.1279755 0.97004497
-0.46594298 3.1254063 0.96622819
-0.4575395 3.1232522 0.96182352
-0.44910216 3.1210887 0.95740074
-0.44063193 3.1189167 0.95296001
-0.43212783 3.1167367 0.94850188
-0.42358917 3.1145477 0.94402522
-0.41445535 3.112685 0.9390679
-0.40458247 3.1112311 0.93350941
-0.39465973 3.1097696 0.92792249
-0.38468504 3.1083016 0.92230672
-0.37466291 3.1068254 0.91666496
-0.36382827 3.1057885 0.91036618
-0.34497511 3.1093853 0.89748806
-0.28950462 3.1341512 0.85455936
-0.26724261 3.1394506 0.8389799
-0.57856387 3.4117904 0.94151711
-0.57773042 3.4045675 0.94356304
-0.57689953 3.3973584 0.94560617
-0.60924047 3.3653541 0.97676498
-0.61116165 3.3562269 0.98117387
-0.61305445 3.3471506 0.98554748
-0.61413103 3.3387089 0.98919582
-0.61520261 3.3302953 0.99283129
-0.61627084 3.3219101 0.99645513
-0.61368316 3.2487597 1.0207614
-0.61251181 3.2421746 1.022375
-0.61126971 3.235651 1.0239228
-0.61002952 3.2291367 1.0254682
-0.60879028 3.2226322 1.0270103
-0.60736513 3.2162652 1.0283906
-0.60557532 3.2101586 1.0294544
-0.60098153 3.2059698 1.028121
-0.59638274 3.2017758 1.026786
-0.5917775 3.1975763 1.0254488
-0.58716679 3.1933725 1.0241092
-0.5822379 3.1893713 1.0225035
-0.5767827 3.1857102 1.0204551
-0.57203257 3.1815679 1.0190085
-0.57260686 3.1738944 1.0220773
-0.57318062 3.1662431 1.0251365
-0.57375157 3.1586132 1.0281878
-0.57432061 3.1510062 1.0312301
-0.57175726 3.1454539 1.0316225
-0.56549126 3.1423006 1.0288978
-0.55921024 3.1391387 1.0261651
-0.55291134 3.1359687 1.0234255
-0.54659814 3.1327903 1.020679
-0.54026705 3.1296041 1.0179254
-0.50513601 3.144623 0.99106747
-0.49805245 3.141793 0.9877255
-0.4907425 3.1390824 0.98420328
-0.48340917 3.1363633 0.9806686
-0.47605249 3.1336353 0.9771232
-0.46867147 3.130899 0.97356665
-0.46126568 3.1281533 0.96999812
-0.45352381 3.1255891 0.96615767
-0.44507885 3.1234305 0.96174419
-0.43659884 3.121263 0.95731157
-0.42808425 3.1190865 0.95286155
-0.41953415 3.1169019 0.94839156
-0.4109509 3.1147082 0.94390529
-0.40172961 3.1128652 0.93890363
-0.39180067 3.1114087 0.93333173
-0.3818236 3.1099446 0.92773217
-0.37179601 3.1084735 0.922104
-0.36171618 3.1069958 0.91644603
-0.33954552 3.1125309 0.90089279
-0.29368228 3.1317153 0.86598045
-0.27557385 3.1346357 0.85384309
-0.25316286 3.1399508 0.8382194
-0.57874709 3.4110203 0.9496026
-0.577932 3.403796 0.95165312
-0.57720071 3.3965235 0.95377207
-0.57647121 3.3892651 0.95588714
-0.60891157 3.3573244 0.98697639
-0.6105203 3.3484645 0.99108434
-0.61159945 3.3400235 0.99472266
-0.61267626 3.3316104 0.99834722
-0.61360443 3.3233321 1.0018346
-0.61395907 3.3154955 1.0048167
-0.61431229 3.3076818 1.0077889
-0.61466509 3.2998879 1.0107528
-0.61442536 3.2925427 1.0131983
-0.61416304 3.2852299 1.015617
-0.61390144 3.2779341 1.018031
-0.61337548 3.2708435 1.0202111
-0.61258531 3.2639537 1.022159
-0.61179739 3.2570777 1.0241027
-0.61101002 3.2502129 1.0260435
-0.60993928 3.2435613 1.0277356
-0.60869884 3.2370379 1.0292782
-0.60746032 3.230525 1.0308191
-0.60622394 3.2240214 1.0323576
-0.60288948 3.2189698 1.032102
-0.59838605 3.2147171 1.0308506
-0.59378058 3.2105248 1.0295154
-0.58916986 3.2063274 1.0281787
-0.58455271 3.2021246 1.0268406
-0.57993102 3.197916 1.0255004
-0.5753029 3.1937034 1.0241585
-0.57230735 3.1883914 1.0242027
-0.57288092 3.1807101 1.0272624
-0.57345301 3.1730509 1.030314
-0.57402301 3.1654146 1.0333562
-0.57459205 3.1577985 1.0363895
-0.57149935 3.1525934 1.0363361
-0.56603128 3.1489305 1.0342876
-0.55987012 3.1457016 1.0316615
-0.55357629 3.1425412 1.0289304
-0.54726505 3.1393723 1.0261921
-0.5409385 3.1361964 1.0234463
-0.53459525 3.1330113 1.020694
-0.49938738 3.1480701 0.99386913
-0.49293995 3.1448321 0.99107116
-0.48581806 3.1419985 0.98771846
-0.47847185 3.1392837 0.98418856
-0.47110227 3.1365588 0.98064584
-0.46370983 3.1338253 0.97709376
-0.45629165 3.1310823 0.97352856
-0.44885007 3.1283309 0.96995211
-0.44105148 3.1257732 0.96608859
-0.4325617 3.1236103 0.96166408
-0.42403683 3.1214383 0.95722121
-0.41547769 3.1192577 0.95276028
-0.40688419 3.1170678 0.94828188
-0.39825636 3.1148694 0.94378459
-0.38894638 3.1130457 0.93874025
-0.3789624 3.1115868 0.93315452
-0.36893052 3.1101193 0.92754114
-0.35884711 3.1086464 0.92189938
-0.33410877 3.11568 0.90430224
-0.29547057 3.1306658 0.87540722
-0.28011402 3.1320117 0.86554891
-0.26157394 3.1351225 0.85312247
-0.23901106 3.1404548 0.83745444
-0.57901019 3.4101911 0.95773536
-0.57827795 3.4029169 0.95984644
-0.57754838 3.3956559 0.96195489
-0.5768196 3.3884099 0.96405786
-0.57609171 3.3811767 0.96615744
-0.60489666 3.3520679 0.99393082
-0.60907006 3.3413379 1.000244
-0.61014974 3.3329258 1.0038586
-0.61092699 3.3247619 1.0072014
-0.61128503 3.3169258 1.0101737
-0.61164206 3.3091123 1.0131385
-0.61196911 3.3013401 1.0160692
-0.61170918 3.2940123 1.0184872
-0.61145014 3.2867002 1.0208997
-0.61119068 3.2794046 1.0233067
-0.61069763 3.2722933 1.0255064
-0.60991025 3.2654042 1.0274482
-0.60912389 3.2585285 1.0293866
-0.60834008 3.2516654 1.0313214
-0.60736775 3.2449465 1.0330915
-0.60566854 3.2387459 1.0342366
-0.60201401 3.2339082 1.0337124
-0.59835809 3.229069 1.0331873
-0.59469998 3.2242265 1.0326624
-0.59104067 3.2193816 1.0321374
-0.58655792 3.2150936 1.0309145
-0.58193529 3.2108927 1.0295769
-0.57730788 3.2066867 1.0282367
-0.57267308 3.2024751 1.0268962
-0.57273442 3.1951096 1.0295216
-0.57316381 3.1875165 1.0324531
-0.5737254 3.1798561 1.0354881
-0.5742954 3.1722116 1.038522
-0.57486373 3.1645882 1.0415477
-0.57055521 3.1601813 1.0404741
-0.56508458 3.1565244 1.0384285
-0.55960387 3.1528606 1.0363785
-0.5541116 3.1491914 1.0343244
-0.5479328 3.1459494 1.0317011
-0.54160863 3.1427834 1.0289637
-0.53526849 3.1396079 1.0262184
-0.50007254 3.1547499 0.99946392
-0.49362683 3.1515234 0.99667388
-0.48716679 3.1482875 0.99387783
-0.48068884 3.1450438 0.99107414
-0.47352928 3.1422069 0.98771143
-0.46614826 3.1394856 0.98417318
-0.45874271 3.1367545 0.98062372
-0.45131305 3.1340151 0.97706282
-0.44385791 3.1312668 0.97349
-0.43638012 3.1285088 0.96990544
-0.42852381 3.1259577 0.96601826
-0.41998971 3.1237903 0.96158421
-0.41142026 3.121613 0.95713091
-0.40281653 3.1194284 0.95266032
-0.39417845 3.117234 0.94817191
-0.3855046 3.115031 0.94366419
-0.37610477 3.1132271 0.93857473
-0.36606619 3.1117661 0.93297613
-0.35597873 3.110296 0.92734987
-0.32866538 3.1188335 0.90771693
-0.29712853 3.129693 0.88469666
-0.28193381 3.1309586 0.87499881
-0.26648119 3.132309 0.86511493
-0.2475037 3.1356113 0.85239846
-0.2246853 3.1410186 0.83660305
-0.5793547 3.4093025 0.96591437
-0.57862395 3.40204 0.96801543
-0.57789445 3.3947918 0.97011197
-0.5771665 3.3875566 0.97220445
-0.57643914 3.380336 0.97429287
-0.57583851 3.3730364 0.97648644
-0.59164733 3.3536432 0.99287212
-0.60373217 3.3371019 1.0060002
-0.6082505 3.3261902 1.0125644
-0.60861236 3.3183551 1.0155289
-0.60897374 3.3105416 1.018485
-0.60925144 3.3028085 1.0213621
-0.60899383 3.2954807 1.0237727
-0.60873753 3.2881691 1.0261784
-0.6084823 3.2808745 1.0285797
-0.60802001 3.2737422 1.0307974
-0.6072365 3.2668543 1.0327346
-0.60573316 3.2604866 1.0340537
-0.60329127 3.2547863 1.0345689
-0.60085058 3.2490888 1.0350828
-0.59747463 3.2440464 1.0348012
-0.59381086 3.2392018 1.0342757
-0.5901463 3.2343538 1.0337496
-0.58647865 3.2295032 1.0332236
-0.58281058 3.2246501 1.0326983
-0.57913983 3.2197952 1.0321708
-0.57467896 3.2154729 1.0309783
-0.57277912 3.2094126 1.0319486
-0.5732094 3.201791 1.0348796
-0.5736388 3.1941907 1.0378021
-0.57406765 3.1866119 1.0407181
-0.57456779 3.1790056 1.0436854
-0.57507372 3.1714153 1.0466515
-0.56961167 3.1677723 1.0446131
-0.56413811 3.1641231 1.0425705
-0.55865556 3.160465 1.0405246
-0.55316085 3.1568024 1.0384736
-0.54765558 3.153131 1.0364195
-0.54214132 3.1494536 1.0343614
-0.5359416 3.1461995 1.0317398
-0.50075465 3.1614258 1.0050542
-0.49431369 3.1582086 1.002273
-0.4878577 3.1549826 0.99948478
-0.48138288 3.1517489 0.99668968
-0.47489303 3.1485064 0.99388742
-0.46838579 3.1452558 0.9910773
-0.46118638 3.1424155 0.9877041
-0.45376912 3.139688 0.9841575
-0.44632709 3.1369519 0.98060066
-0.43886071 3.134207 0.97703117
-0.43136933 3.1314523 0.97345114
-0.42385387 3.1286888 0.96985924
-0.41593918 3.126143 0.96594793
-0.40736118 3.123971 0.96150315
-0.39874646 3.1217909 0.95703954
-0.39009792 3.1196008 0.95255923
-0.38141501 3.1174011 0.94806033
-0.37269422 3.115195 0.94354206
-0.3632057 3.11341 0.93840897
-0.35171106 3.1127663 0.93165916
-0.32279316 3.1222365 0.91079462
-0.29599813 3.1303372 0.8916983
-0.28374499 3.1299109 0.88441181
-0.26833126 3.1312537 0.87458777
-0.25278375 3.1326079 0.86468005
-0.23336361 3.1361027 0.85167092
-0.20868778 3.142493 0.83445954
-0.57896835 3.4011662 0.97615939
-0.57823879 3.3939297 0.97824472
-0.57754141 3.3866849 0.98035175
-0.5769403 3.3793821 0.98253745
-0.57634073 3.3720949 0.98471892
-0.57574201 3.3648217 0.98689651
-0.57514477 3.3575628 0.98906893
-0.59052247 3.3386323 1.004976
-0.59733713 3.3260531 1.0134881
-0.60002363 3.3165288 1.0184374
-0.60269684 3.3070493 1.0233634
-0.60269171 3.2995315 1.0259854
-0.60204822 3.2924886 1.0280542
-0.60140455 3.2854612 1.0301183
-0.60076493 3.278445 1.0321805
-0.59867769 3.2724676 1.0330048
-0.59623128 3.2667496 1.0335219
-0.59378517 3.2610347 1.0340377
-0.59134161 3.2553217 1.0345547
-0.58889753 3.2496128 1.0350699
-0.58557642 3.2445142 1.0348412
-0.58190143 3.2396586 1.0343149
-0.57822686 3.2348001 1.0337883
-0.57454824 3.2299395 1.0332611
-0.57294607 3.2236607 1.0344836
-0.573255 3.2160957 1.0373118
-0.57368463 3.2084687 1.0402339
-0.5741142 3.2008617 1.0431491
-0.57454193 3.1932752 1.0460554
-0.57496727 3.1857107 1.0489535
-0.5741303 3.179004 1.0507895
-0.5686661 3.1753678 1.0487542
-0.563191 3.1717241 1.0467161
-0.55770558 3.1680734 1.0446727
-0.55220914 3.1644168 1.0426258
-0.54670227 3.1607521 1.0405757
-0.54118466 3.1570809 1.0385202
-0.53565627 3.1534021 1.0364618
-0.50103253 3.1683564 1.0103037
-0.49500152 3.1648881 1.0078676
-0.48854718 3.1616726 1.0050875
-0.48207739 3.1584489 1.002301
-0.4755899 3.1552165 0.99950683
-0.46908647 3.1519752 0.99670458
-0.46256563 3.1487255 0.99389589
-0.45602763 3.1454685 0.99108046
-0.44879055 3.1426241 0.98769724
-0.44133613 3.1398921 0.98414278
-0.4338569 3.1371498 0.98057687
-0.42635357 3.134398 0.97700042
-0.41882548 3.131639 0.97341138
-0.41127282 3.1288698 0.96981156
-0.40330017 3.1263292 0.96587664
-0.39467546 3.1241531 0.96142209
-0.38601688 3.1219676 0.95694846
-0.37732255 3.1197734 0.95245713
-0.36859271 3.1175699 0.94794822
-0.35982922 3.1153576 0.94342089
-0.34349743 3.1175473 0.9327805
-0.31445438 3.1270783 0.91189164
-0.29487011 3.1309817 0.89868581
-0.28262532 3.1305563 0.8914296
-0.27017319 3.1302018 0.88402486
-0.2546643 3.1315491 0.87417555
-0.23901904 3.1329091 0.86424083
-0.21915177 3.1365974 0.85093904
-0.19258964 3.1439772 0.83230168
-0.5786429 3.3930252 0.98640472
-0.57804143 3.3857214 0.98858279
-0.5774408 3.3784313 0.99075705
-0.5768407 3.3711567 0.99292612
-0.57624322 3.3638959 0.99509156
-0.57569295 3.3566155 0.99729306
-0.57524538 3.3492761 0.99957681
-0.57724524 3.3401692 1.0039496
-0.58486837 3.3270159 1.0131196
-0.58758777 3.3174675 1.0180794
-0.59029675 3.3079629 1.0230185
-0.59054798 3.3002527 1.0258512
-0.58991504 3.2931936 1.0279258
-0.58928353 3.2861485 1.0299966
-0.58865207 3.2791178 1.0320619
-0.58668184 3.2730446 1.0329866
-0.58423156 3.267314 1.0335034
-0.58178419 3.261586 1.0340215
-0.57933688 3.2558603 1.0345385
-0.57689184 3.2501378 1.035056
-0.57362723 3.2449834 1.0348824
-0.57334185 3.237783 1.0372156
-0.57360715 3.230221 1.0400054
-0.57387161 3.2226791 1.0427889
-0.5741601 3.2151406 1.0455856
-0.57458806 3.2075276 1.0484915
-0.57501501 3.1999345 1.0513898
-0.57544059 3.192363 1.0542805
-0.57153243 3.1876998 1.053548
-0.56690025 3.1835115 1.0522139
-0.56224352 3.1793299 1.0508621
-0.55675596 3.1756854 1.0488223
-0.55125767 3.1720343 1.0467795
-0.54574817 3.1683767 1.0447321
-0.54022908 3.1647112 1.0426816
-0.50566429 3.1798081 1.0166019
-0.50006008 3.1760876 1.014519
-0.49444571 3.1723592 1.0124328
-0.48881939 3.1686237 1.010341
-0.48277116 3.1651423 1.0079085
-0.47628799 3.1619191 1.0051222
-0.46978742 3.158689 1.0023292
-0.4632692 3.1554506 0.99952817
-0.45673478 3.1522026 0.99672037
-0.45018509 3.1489465 0.99390668
-0.44361535 3.1456821 0.99108291
-0.43633896 3.1428344 0.98768967
-0.42884731 3.1400957 0.98412752
-0.42133209 3.1373475 0.98055518
-0.4137904 3.1345918 0.97696942
-0.40622607 3.1318259 0.97337276
-0.39863595 3.1290507 0.96976483
-0.39060375 3.1265168 0.96580654
-0.38193372 3.1243355 0.96134079
-0.37322891 3.1221464 0.95685685
-0.36449021 3.119947 0.95235509
-0.35571483 3.1177387 0.9478361
-0.33525637 3.122345 0.93390572
-0.3060872 3.1319375 0.91299105
-0.29374352 3.1316242 0.90566188
-0.28150541 3.1312017 0.89843458
-0.26918891 3.1307762 0.89116049
-0.25653771 3.1304953 0.88363451
-0.24093178 3.1318464 0.87376159
-0.22519022 3.1332099 0.8638013
-0.20486839 3.1370928 0.85020453
-0.17639257 3.1454682 0.83013141
-0.57853949 3.3847601 0.99678785
-0.57793915 3.3774836 0.99894977
-0.57733977 3.3702214 1.0011083
-0.57678205 3.3629432 1.0032954
-0.57633376 3.3556006 1.0055723
-0.57588601 3.348274 1.0078427
-0.57543963 3.3409626 1.0101093
-0.57499397 3.333667 1.0123711
-0.57470042 3.326277 1.0147569
-0.57509392 3.3184097 1.0177196
-0.57783771 3.3088813 1.0226704
-0.57835066 3.3009777 1.0257186
-0.57772797 3.2939022 1.0277979
-0.5771057 3.2868404 1.0298725
-0.57648546 3.2797923 1.0319424
-0.57463205 3.2736244 1.0329684
-0.5736528 3.2668517 1.0347285
-0.5737403 3.259351 1.0373805
-0.57382619 3.2518685 1.0400258
-0.57400316 3.2443426 1.0427415
-0.57426685 3.2367756 1.0455233
-0.57453084 3.2292285 1.0482981
-0.57479358 3.2217004 1.0510653
-0.5750618 3.2141888 1.0538309
-0.57548785 3.2065895 1.0567206
-0.57351738 3.2006207 1.0576065
-0.56888545 3.19644 1.0562748
-0.56424737 3.1922524 1.0549413
-0.55960447 3.18806 1.053606
-0.55495465 3.1838632 1.0522693
-0.55029976 3.1796603 1.0509312
-0.54479361 3.1760054 1.0488921
-0.53927124 3.1723473 1.0468435
-0.5046947 3.1875355 1.0208151
-0.49908766 3.1838219 1.018736
-0.49346995 3.1801004 1.0166531
-0.48784336 3.1763709 1.0145663
-0.48220342 3.1726351 1.0124754
-0.47655442 3.1688921 1.010381
-0.47048622 3.1653981 1.0079477
-0.46397325 3.1621687 1.0051559
-0.45744237 3.158931 1.002357
-0.45089388 3.1556857 0.99954987
-0.4443287 3.1524315 0.99673593
-0.4377473 3.149168 0.99391508
-0.43114945 3.1458972 0.99108654
-0.42383179 3.1430461 0.98768109
-0.41630465 3.1403015 0.98411185
-0.40875101 3.137548 0.98053062
-0.40117285 3.1347854 0.97693795
-0.39356941 3.1320145 0.97333342
-0.38594186 3.1292329 0.96971714
-0.37784937 3.1267052 0.9657343
-0.36913428 3.1245201 0.96125823
-0.36038536 3.1223252 0.95676547
-0.3483611 3.1220276 0.94964814
-0.32698739 3.1271591 0.93503398
-0.30197179 3.134316 0.91753167
-0.29164213 3.1328323 0.91184354
-0.28038788 3.1318462 0.9054271
-0.26807827 3.1314232 0.89818162
-0.25568974 3.1309988 0.89089012
-0.24283762 3.1307893 0.88324445
-0.22713394 3.1321456 0.87334478
-0.21129535 3.1335135 0.86335945
-0.19051278 3.1375918 0.84946591
-0.16009466 3.1469684 0.82794964
-0.57843602 3.376539 1.0071173
-0.57786959 3.3692648 1.0092912
-0.57742107 3.3619194 1.0115601
-0.57697302 3.3545904 1.0138234
-0.57652527 3.347276 1.016082
-0.57607889 3.3399777 1.0183368
-0.57573807 3.332618 1.0206759
-0.57545954 3.3252306 1.0230604
-0.57518196 3.3178599 1.0254403
-0.57490408 3.3105054 1.0278152
-0.57473475 3.303091 1.0302755
-0.57463634 3.2956433 1.0327897
-0.57453918 3.2882121 1.0352986
-0.57444155 3.2807987 1.0378001
-0.57447433 3.2733123 1.0404061
-0.57455873 3.2658076 1.0430495
-0.57464367 3.2583208 1.045687
-0.57472885 3.2508526 1.0483173
-0.57492679 3.243325 1.0510368
-0.57519025 3.2357712 1.0538036
-0.57545233 3.2282386 1.0565631
-0.57571274 3.2207258 1.0593134
-0.57534415 3.2136583 1.0615351
-0.57087117 3.2093756 1.0603383
-0.56623352 3.2051957 1.059007
-0.56159085 3.20101 1.0576743
-0.55694103 3.19682 1.0563385
-0.55228525 3.1926243 1.0550023
-0.54762447 3.1884227 1.0536647
-0.54295605 3.1842167 1.0523247
-0.53828406 3.1800051 1.0509833
-0.50302893 3.1957202 1.0244582
-0.49811646 3.1915598 1.0229558
-0.49249727 3.1878443 1.020876
-0.48686594 3.1841223 1.0187924
-0.48122406 3.1803935 1.0167052
-0.47557151 3.1766572 1.014613
-0.46990821 3.1729131 1.0125182
-0.46423373 3.1691616 1.0104178
-0.45814833 3.1656542 1.0079881
-0.45160457 3.1624188 1.0051907
-0.4450413 3.1591752 1.0023839
-0.43846539 3.1559212 0.99957216
-0.43186992 3.1526601 0.99675173
-0.42525679 3.1493914 0.99392438
-0.41862702 3.146112 0.99108946
-0.4112705 3.1432581 0.98767424
-0.40370497 3.1405084 0.98409611
-0.39611417 3.1377485 0.98050749
-0.38849854 3.1349795 0.97690743
-0.38085818 3.1322024 0.97329426
-0.37319112 3.1294162 0.96966916
-0.36503991 3.1268935 0.96566248
-0.35627881 3.1247034 0.96117735
-0.33870241 3.127671 0.94963402
-0.3180511 3.1323633 0.93565518
-0.2990717 3.1359868 0.92304581
-0.28873846 3.1345074 0.91737366
-0.27835202 3.1330211 0.91167265
-0.26697123 3.1320684 0.90519059
-0.25459006 3.1316454 0.89792842
-0.24212812 3.1312206 0.89061785
-0.22907004 3.1310844 0.88285148
-0.21327055 3.1324461 0.872926
-0.19733277 3.1338179 0.86291492
-0.17608494 3.1380935 0.84872299
-0.57850617 3.3682306 1.0175415
-0.57805693 3.360899 1.0197976
-0.57760888 3.3535826 1.0220492
-0.57716113 3.3462818 1.0242946
-0.57677507 3.3389516 1.0265878
-0.57649481 3.3315616 1.0289649
-0.57621676 3.3241878 1.0313369
-0.57593769 3.3168309 1.0337039
-0.57568139 3.3094742 1.0360829
-0.57558227 3.3020225 1.0385889
-0.57548368 3.2945876 1.0410894
-0.5753848 3.2871714 1.0435839
-0.57529294 3.2797673 1.0460789
-0.5753774 3.2722566 1.0487142
-0.57546163 3.264766 1.0513424
-0.57554489 3.257293 1.0539651
-0.57562894 3.2498393 1.0565817
-0.5758481 3.24231 1.0593034
-0.57610863 3.2347715 1.0620539
-0.57438254 3.2286108 1.063146
-0.57071441 3.2237787 1.0626223
-0.56704366 3.2189436 1.0620979
-0.56337106 3.2141068 1.0615728
-0.55892742 3.2097852 1.0604111
-0.55427307 3.2055955 1.059077
-0.54961157 3.2014008 1.0577413
-0.54494333 3.1972022 1.0564036
-0.54027086 3.1929975 1.055064
-0.53559148 3.1887879 1.0537239
-0.50029951 3.2046084 1.0272326
-0.49555215 3.2003376 1.0258716
-0.49079958 3.1960618 1.0245098
-0.48588753 3.1918776 1.0230204
-0.48024356 3.1881561 1.0209363
-0.47458905 3.1844254 1.0188497
-0.46892315 3.1806886 1.0167571
-0.46324649 3.1769443 1.0146601
-0.4575589 3.173192 1.0125612
-0.45186058 3.1694324 1.0104574
-0.44575632 3.1659117 1.0080286
-0.43918088 3.1626704 1.0052238
-0.43258849 3.1594193 1.0024118
-0.42598039 3.1561589 0.99959385
-0.41935465 3.1528909 0.99676752
-0.41271079 3.1496141 0.99393445
-0.40604904 3.1463289 0.99109304
-0.39865297 3.1434705 0.98766637
-0.39104953 3.1407146 0.9840818
-0.38342127 3.1379497 0.98048365
-0.37576801 3.135175 0.97687572
-0.3680883 3.1323931 0.97325397
-0.36038378 3.1295993 0.9696219
-0.34949976 3.1286626 0.96345353
-0.32900053 3.1333406 0.94961894
-0.30824217 3.1380787 0.93560982
-0.29617378 3.1376548 0.92855966
-0.28583574 3.1361809 0.92290139
-0.27544454 3.1346991 0.91721588
-0.26500091 3.1332099 0.91150057
-0.25349209 3.132292 0.9049539
-0.24103798 3.1318696 0.89767236
-0.22850403 3.1314437 0.89034528
-0.21523787 3.1313818 0.88245654
-0.19933967 3.1327469 0.87250578
-0.18330227 3.1341245 0.86246872
-0.16158341 3.1385972 0.84797817
-0.57268345 3.3643069 1.0229198
-0.57824385 3.3525784 1.0302478
-0.57780963 3.3452797 1.032493
-0.57752895 3.3378863 1.0348619
-0.57724971 3.3305087 1.0372267
-0.57697064 3.3231483 1.0395858
-0.57669163 3.3158047 1.0419393
-0.57652652 3.3083954 1.0443835
-0.57642674 3.3009567 1.0468754
-0.5763272 3.2935362 1.0493621
-0.5762279 3.2861333 1.051843
-0.57619488 3.2787008 1.0543723
-0.57627815 3.2712047 1.056994
-0.57636118 3.2637274 1.0596081
-0.57644498 3.2562692 1.062216
-0.5765273 3.2488291 1.0648177
-0.5734188 3.2436059 1.0647619
-0.56974429 3.2387702 1.0642377
-0.56606781 3.2339327 1.0637128
-0.56239039 3.2290921 1.0631875
-0.55871159 3.2242501 1.0626626
-0.55502963 3.2194052 1.0621372
-0.55134648 3.2145576 1.0616118
-0.54693186 3.2101948 1.0604841
-0.54225868 3.2059975 1.0591475
-0.53758001 3.2017944 1.0578091
-0.50231099 3.2177787 1.0313686
-0.49756336 3.2135146 1.0300102
-0.49281028 3.2092459 1.0286503
-0.48805222 3.2049696 1.0272893
-0.48328507 3.2006903 1.025925
-0.47851416 3.1964054 1.0245595
-0.47360712 3.1921966 1.0230877
-0.46793902 3.1884668 1.0209986
-0.46225929 3.1847289 1.0189056
-0.45656905 3.180984 1.0168092
-0.45086834 3.1772318 1.0147089
-0.44515547 3.1734712 1.0126041
-0.43943062 3.1697049 1.0104942
-0.43330899 3.1661713 1.0080687
-0.42670256 3.1629221 1.0052578
-0.42008039 3.1596642 1.0024399
-0.41344011 3.1563978 0.99961555
-0.40678334 3.1531227 0.99678302
-0.40010849 3.1498387 0.99394304
-0.39341623 3.1465468 0.99109685
-0.38597986 3.1436849 0.98765945
-0.37833804 3.1409233 0.98406607
-0.37067217 3.1381514 0.98046046
-0.36298048 3.1353714 0.97684371
-0.35526285 3.1325822 0.97321457
-0.33986011 3.134311 0.96346897
-0.31925526 3.1390352 0.94960457
-0.30184942 3.1417925 0.93831545
-0.29286873 3.1395619 0.93374401
-0.28293449 3.1378531 0.92842698
-0.27253827 3.1363771 0.92275625
-0.26209009 3.1348927 0.91705644
-0.25158754 3.1334004 0.91132849
-0.23994929 3.1325171 0.90471476
-0.22742321 3.1320934 0.89741677
-0.21481511 3.1316671 0.89007086
-0.20134038 3.1316798 0.88205951
-0.18534277 3.1330502 0.87208414
-0.169205 3.1344318 0.86202008
-0.55893695 3.3662007 1.0216128
-0.57210922 3.348917 1.0353218
-0.5753985 3.3389208 1.0406866
-0.57800066 3.3294601 1.0454607
-0.57772052 3.3221128 1.047807
-0.57747078 3.3147621 1.0501716
-0.57736981 3.3073206 1.0526562
-0.57726932 3.299896 1.0551341
-0.57716811 3.2924893 1.0576068
-0.57706857 3.2851002 1.0600733
-0.5770148 3.2776947 1.0625731
-0.57458436 3.2719731 1.0630902
-0.57215613 3.2662539 1.0636065
-0.56972682 3.2605371 1.0641224
-0.5673002 3.2548239 1.064639
-0.56487507 3.2491131 1.0651555
-0.56140733 3.2441216 1.0648077
-0.55772209 3.2392762 1.0642825
-0.55403489 3.2344277 1.0637556
-0.5503453 3.2295763 1.06323
-0.5466553 3.2247238 1.062704
-0.54296285 3.2198675 1.0621769
-0.53926849 3.2150092 1.0616504
-0.50185865 3.2325959 1.0334862
-0.49811235 3.2276695 1.0329521
-0.49436486 3.2227387 1.0324186
-0.49006367 3.2181685 1.0314345
-0.48529917 3.213896 1.0300735
-0.48052844 3.2096164 1.0287107
-0.47574988 3.2053332 1.0273454
-0.47096604 3.2010441 1.0259798
-0.46617699 3.1967492 1.0246118
-0.46127233 3.192518 1.0231537
-0.45557898 3.1887796 1.0210602
-0.44987538 3.1850336 1.0189638
-0.44416037 3.1812813 1.0168618
-0.43843415 3.1775205 1.0147566
-0.43269786 3.1737528 1.0126483
-0.42694804 3.1699777 1.0105343
-0.42080539 3.1664319 1.0081096
-0.41417012 3.1631756 1.0052934
-0.407516 3.1599102 1.0024687
-0.40084592 3.156637 0.99963844
-0.39415604 3.1533554 0.99679875
-0.38745111 3.1500642 0.99395305
-0.38072595 3.1467652 0.99109876
-0.37325051 3.1438994 0.98765153
-0.36557031 3.1411326 0.98404956
-0.35786459 3.1383555 0.9804371
-0.34541348 3.1383727 0.97305804
-0.32897079 3.1406991 0.96252638
-0.30946684 3.1447561 0.94958949
-0.29767421 3.1442077 0.94279504
-0.28868425 3.1419811 0.93823165
-0.27965635 3.1397457 0.9336499
-0.26963389 3.1380537 0.92829448
-0.25918022 3.1365736 0.92260993
-0.24867386 3.1350858 0.9168967
-0.23811363 3.1335912 0.91115516
-0.22634403 3.1327431 0.90447557
-0.21374452 3.132319 0.8971597
-0.20106228 3.1318934 0.88979614
-0.18737444 3.1319804 0.88166124
-0.17127815 3.1333547 0.87165916
-0.5451113 3.368104 1.0202991
-0.55840939 3.3507605 1.0340539
-0.56269991 3.3400378 1.0402379
-0.56563938 3.3303339 1.0452782
-0.56856334 3.3206773 1.0502936
-0.56930655 3.3126163 1.0534784
-0.56874222 3.3055093 1.0555655
-0.56817794 3.2984166 1.0576494
-0.56761581 3.291337 1.059729
-0.56705445 3.2842727 1.0618043
-0.56489301 3.2783425 1.0625484
-0.5624609 3.272608 1.0630672
-0.56002861 3.2668762 1.0635847
-0.55759788 3.2611463 1.0641023
-0.55516911 3.2554204 1.0646195
-0.55274057 3.2496965 1.0651369
-0.5493418 3.2446406 1.0648533
-0.54564625 3.2397828 1.0643268
-0.54194766 3.2349248 1.0638
-0.53824806 3.2300637 1.0632721
-0.50081897 3.247844 1.0351303
-0.49706715 3.2429135 1.0345949
-0.49331269 3.2379813 1.0340596
-0.48955709 3.2330451 1.0335252
-0.48579836 3.2281079 1.0329889
-0.48203889 3.2231672 1.0324539
-0.47776252 3.2185607 1.0315002
-0.47297964 3.2142787 1.0301365
-0.46819106 3.20999 1.0287714
-0.46339506 3.2056966 1.0274038
-0.45859122 3.2013993 1.0260338
-0.45378476 3.1970942 1.0246638
-0.4488827 3.1928401 1.0232197
-0.44316503 3.1890936 1.0211227
-0.43743715 3.1853397 1.0190212
-0.43169659 3.1815789 1.0169157
-0.42594507 3.1778107 1.0148057
-0.42018238 3.1740353 1.0126905
-0.41440871 3.1702523 1.0105729
-0.40824887 3.1666934 1.0081503
-0.40158141 3.16343 1.0053282
-0.3948963 3.1601584 1.0024968
-0.38819331 3.1568775 0.9996599
-0.38147363 3.1535888 0.99681449
-0.37473679 3.1502907 0.99396324
-0.36798063 3.1469841 0.99110252
-0.36046204 3.1441157 0.98764366
-0.35081741 3.1424916 0.98250574
-0.33443481 3.1448331 0.97204107
-0.31789368 3.1471977 0.96147531
-0.30246252 3.1488371 0.95181173
-0.29349756 3.1466238 0.94727528
-0.28449711 3.1444025 0.94272095
-0.27545872 3.1421704 0.93814802
-0.26638225 3.1399307 0.93355507
-0.25627202 3.1382546 0.92816049
-0.24576065 3.136771 0.92246282
-0.23519565 3.1352811 0.91673654
-0.22457631 3.1337826 0.91098088
-0.21267466 3.1329706 0.90423501
-0.20000003 3.1325462 0.89689976
-0.18724485 3.1321197 0.88951874
-0.17334202 3.1322811 0.8812601
-0.54463375 3.3526132 1.032781
-0.5499382 3.3411605 1.0397878
-0.55291533 3.3314314 1.0448409
-0.55587816 3.3217473 1.0498701
-0.55694377 3.3134494 1.0533133
-0.55639046 3.3063245 1.0554065
-0.55583763 3.2992156 1.0574952
-0.55528569 3.292119 1.0595789
-0.55473548 3.2850375 1.061659
-0.55271637 3.2789941 1.0625246
-0.55028164 3.2732463 1.063043
-0.5478484 3.2675006 1.0635626
-0.54541528 3.2617583 1.0640812
-0.54298341 3.2560196 1.0645992
-0.54055321 3.2502828 1.0651177
-0.53722352 3.2451606 1.0648992
-0.49626756 3.2655125 1.0339078
-0.49380443 3.2596955 1.0344347
-0.49134201 3.2538812 1.0349596
-0.48849609 3.2483282 1.0351716
-0.48473263 3.2433872 1.0346361
-0.48096579 3.2384436 1.0340996
-0.47719848 3.2334979 1.033563
-0.47342926 3.2285488 1.0330268
-0.46965718 3.2235975 1.0324898
-0.46540937 3.2189536 1.031567
-0.46060768 3.2146621 1.0302014
-0.45579907 3.2103653 1.028832
-0.45098519 3.2060626 1.0274616
-0.44616205 3.2017553 1.0260881
-0.44133648 3.1974421 1.0247142
-0.43643826 3.1931648 1.0232868
-0.43069553 3.18941 1.021184
-0.42494285 3.1856484 1.0190779
-0.41917849 3.1818793 1.0169681
-0.41340122 3.178103 1.0148532
-0.40761346 3.17432 1.0127349
-0.40181568 3.1705277 1.010613
-0.39563659 3.1669555 1.0081921
-0.38893718 3.1636851 1.0053625
-0.3822206 3.1604068 1.0025257
-0.37548682 3.1571195 0.99968255
-0.3687343 3.1538231 0.9968304
-0.36196524 3.1505182 0.99397302
-0.35517618 3.1472051 0.99110556
-0.33987638 3.1489496 0.9815169
-0.32339725 3.1513286 0.97101885
-0.30675864 3.1537299 0.96042013
-0.29776701 3.1515603 0.95586962
-0.28931975 3.1490409 0.95175749
-0.28030807 3.1468236 0.94721103
-0.27125847 3.1445971 0.94264621
-0.26217246 3.1423614 0.93806273
-0.25304851 3.1401169 0.93345952
-0.24284935 3.1384561 0.92802656
-0.23228006 3.13697 0.922315
-0.22165523 3.1354768 0.91657561
-0.21097723 3.1339753 0.91080588
-0.19894066 3.1331983 0.90399271
-0.18619286 3.1327744 0.89664078
-0.17336211 3.1323466 0.88924044
-0.54012924 3.3325317 1.044402
-0.54312992 3.3228228 1.0494443
-0.54452425 3.3142865 1.0531496
-0.54398167 3.3071446 1.0552471
-0.54343951 3.3000183 1.0573403
-0.54289931 3.2929044 1.0594298
-0.54236007 3.2858052 1.0615149
-0.54048657 3.2796476 1.0624996
-0.53804827 3.2738864 1.06302
-0.49084249 3.2989497 1.0268819
-0.4902958 3.2917702 1.0289903
-0.48974988 3.2846053 1.0310942
-0.48876777 3.2777514 1.0328377
-0.48630008 3.2719152 1.0333656
-0.4838315 3.266083 1.0338922
-0.48136526 3.2602539 1.034418
-0.47889951 3.2544267 1.0349444
-0.47611821 3.2488141 1.0352131
-0.47234353 3.2438624 1.0346766
-0.46856549 3.2389083 1.0341388
-0.46478575 3.2339523 1.0336002
-0.46100605 3.228992 1.0330637
-0.45722279 3.22403 1.0325251
-0.45300025 3.2193494 1.0316341
-0.44817802 3.2150488 1.0302637
-0.44335103 3.210743 1.0288924
-0.43851835 3.2064314 1.0275189
-0.43368086 3.2021129 1.026145
-0.42883292 3.1977918 1.0247657
-0.42393944 3.1934898 1.0233533
-0.41817123 3.1897278 1.021247
-0.41239327 3.1859574 1.0191368
-0.40660334 3.1821802 1.0170223
-0.40080154 3.178396 1.0149019
-0.39498994 3.1746039 1.0127788
-0.38916454 3.1708043 1.0106518
-0.38296634 3.1672189 1.0082328
-0.37623686 3.1639416 1.0053976
-0.36948863 3.1606565 1.002555
-0.36272126 3.1573627 0.99970424
-0.35593861 3.1540585 0.9968468
-0.34336594 3.1542037 0.9894318
-0.32887673 3.155442 0.9805221
-0.31229845 3.1578596 0.96999061
-0.3004424 3.1574135 0.96319443
-0.29254618 3.1545923 0.95952183
-0.28462327 3.1517622 0.95583755
-0.27611759 3.1492467 0.95170462
-0.26705751 3.1470251 0.94714743
-0.257961 3.1447935 0.94257164
-0.24882631 3.1425521 0.93797696
-0.23965394 3.1403031 0.93336397
-0.22936566 3.1386583 0.92789209
-0.21873653 3.1371689 0.92216742
-0.20805232 3.135673 0.91641319
-0.1973145 3.1341686 0.91062987
-0.18514325 3.1334267 0.9037497
-0.17232011 3.1330028 0.89637965
-0.45445096 3.3543935 0.99444038
-0.46767986 3.3374503 1.0078751
-0.47296906 3.3261127 1.0147858
-0.47600532 3.3163817 1.0198389
-0.47873479 3.3068988 1.0246283
-0.47820097 3.2996848 1.0267484
-0.47766671 3.2924869 1.028863
-0.47713077 3.2853048 1.0309707
-0.47628117 3.2783513 1.032819
-0.47380948 3.2725024 1.0333475
-0.47134039 3.2666564 1.0338757
-0.46887034 3.2608135 1.0344033
-0.46640217 3.2549736 1.0349308
-0.46368548 3.2493033 1.0352561
-0.45989743 3.2443407 1.0347171
-0.45611009 3.2393742 1.0341789
-0.45232061 3.2344055 1.0336413
-0.44852683 3.2294357 1.0331011
-0.44473279 3.2244625 1.0325621
-0.44053504 3.2197464 1.0317016
-0.4356966 3.2154362 1.0303286
-0.4308508 3.2111208 1.0289539
-0.42599905 3.2067993 1.0275788
-0.42114034 3.2024739 1.0261991
-0.41627544 3.1981413 1.0248184
-0.4113839 3.1938164 1.0234213
-0.40559182 3.1900463 1.0213097
-0.3997893 3.1862681 1.0191954
-0.39397341 3.182483 1.0170745
-0.38814682 3.1786897 1.0149515
-0.38230851 3.17489 1.0128231
-0.37645805 3.1710827 1.0106914
-0.37024176 3.167484 1.0082738
-0.36347917 3.1641991 1.0054324
-0.35669917 3.1609075 1.0025833
-0.34479478 3.1606779 0.99570966
-0.33086187 3.1616178 0.98725808
-0.31681836 3.1625652 0.97873831
-0.30311182 3.1632543 0.97050309
-0.29522827 3.1604466 0.96684694
-0.2873182 3.1576285 0.96317738
-0.27938244 3.1548011 0.95949715
-0.27142018 3.1519651 0.95580375
-0.26285562 3.1494524 0.95165032
-0.25374693 3.1472263 0.94708288
-0.24460268 3.14499 0.94249654
-0.23541912 3.1427448 0.9378919
-0.22619766 3.1404908 0.93326741
-0.21581879 3.1388612 0.92775595
-0.20513006 3.1373701 0.92201889
-0.1943865 3.1358705 0.91625035
-0.18358788 3.1343634 0.91045386
-0.17128098 3.1336572 0.90350592
-0.44043231 3.3560181 0.99335527
-0.45378348 3.3390179 1.0068338
-0.45992309 3.3270981 1.0144101
-0.46299985 3.3173389 1.0194776
-0.46602321 3.3076537 1.0244902
-0.4654994 3.3004239 1.026614
-0.4649761 3.2932091 1.028733
-0.464454 3.2860086 1.030847
-0.46373641 3.2789545 1.032799
-0.46126282 3.2730916 1.0333296
-0.45879155 3.2672319 1.0338596
-0.45631865 3.2613766 1.0343876
-0.45384839 3.2555232 1.0349168
-0.45119837 3.2497921 1.0352988
-0.44739959 3.2448196 1.0347589
-0.44359845 3.2398429 1.0342189
-0.43979657 3.2348642 1.033679
-0.43599203 3.2298832 1.0331385
-0.43218586 3.2248988 1.0325996
-0.42801574 3.2201452 1.0317692
-0.42315707 3.2158265 1.030393
-0.41829216 3.2115011 1.0290149
-0.41342178 3.2071707 1.0276353
-0.4085452 3.2028346 1.0262547
-0.4036622 3.198493 1.0248718
-0.3987723 3.1941454 1.0234877
-0.39295617 3.1903656 1.0213734
-0.38712716 3.1865799 1.0192522
-0.38128766 3.1827862 1.0171293
-0.37543413 3.1789858 1.0150001
-0.36957082 3.1751771 1.0128675
-0.3636958 3.1713614 1.0107307
-0.35745972 3.1677496 1.0083162
-0.34622127 3.1671445 1.0019798
-0.33230239 3.1681087 0.99355811
-0.31827366 3.169081 0.9850691
-0.30456764 3.1698031 0.97685128
-0.29763743 3.1664457 0.97394687
-0.29000837 3.1634829 0.97050345
-0.28208524 3.1606677 0.9668389
-0.27413633 3.1578445 0.96316296
-0.2661593 3.1550112 0.95947337
-0.25815699 3.1521692 0.95577145
-0.24953212 3.1496601 0.95159626
-0.24037573 3.1474295 0.94701833
-0.2311824 3.1451881 0.94242197
-0.22194996 3.1429386 0.93780583
-0.21267915 3.1406794 0.93316966
-0.2022092 3.1390653 0.92762053
-0.19146112 3.1375706 0.92186886
-0.18065701 3.1360691 0.91608745
-0.16979806 3.1345584 0.91027617
-0.41030753 3.3687711 0.97924942
-0.43980962 3.3405948 1.0057844
-0.44681486 3.3280871 1.0140331
-0.44992882 3.3183029 1.0191134
-0.45302796 3.3085656 1.024169
-0.45274037 3.3011646 1.026479
-0.45223042 3.2939317 1.0286047
-0.45171782 3.2867143 1.0307237
-0.45113662 3.2795596 1.0327804
-0.44865891 3.273685 1.0333108
-0.44618529 3.2678106 1.033842
-0.44371071 3.2619426 1.0343721
-0.44123805 3.2560754 1.034902
-0.43865311 3.2502861 1.0353405
-0.43484336 3.2453015 1.0348004
-0.4310317 3.2403133 1.03426
-0.42721671 3.2353249 1.0337176
-0.42340147 3.2303317 1.0331768
-0.4195829 3.225337 1.0326351
-0.41544041 3.2205455 1.0318373
-0.4105624 3.2162173 1.0304574
-0.40567937 3.2118828 1.0290767
-0.40079045 3.2075419 1.0276959
-0.3958936 3.2031982 1.0263102
-0.39099056 3.1988473 1.0249231
-0.38608226 3.1944907 1.023536
-0.3802647 3.1906874 1.0214359
-0.37441 3.1868937 1.0193111
-0.36854428 3.1830919 1.0171827
-0.36266592 3.1792829 1.0150498
-0.35677662 3.1754661 1.0129122
-0.34642792 3.174341 1.0072892
-0.33374247 3.1745903 0.99985027
-0.31972873 3.1755874 0.9913916
-0.30560511 3.1765928 0.98286653
-0.29842323 3.1733992 0.97977179
-0.29147825 3.1700444 0.97686833
-0.28451511 3.1666794 0.97395772
-0.27684581 3.1637108 0.97050422
-0.26888332 3.1608906 0.96683162
-0.2608934 3.1580615 0.96314633
-0.25287655 3.1552219 0.95944887
-0.24483371 3.1523733 0.95573854
-0.23614877 3.149868 0.95154172
-0.22694446 3.1476324 0.946953
-0.21770203 3.1453869 0.94234616
-0.20841977 3.1431317 0.93771976
-0.19909936 3.1408675 0.9330731
-0.18853647 3.1392705 0.92748338
-0.17772853 3.1377733 0.92171794
-0.16686434 3.1362684 0.91592288
-0.42576164 3.3421786 1.0047315
-0.43364251 3.3290803 1.0136544
-0.43679628 3.3192699 1.0187473
-0.43993381 3.3095071 1.0238169
-0.4399215 3.3019104 1.0263436
-0.4394213 3.2946601 1.0284721
-0.43892539 3.2874229 1.0306
-0.43842378 3.2802031 1.0327184
-0.43599924 3.2742784 1.0332936
-0.43352062 3.2683942 1.0338246
-0.43104577 3.2625101 1.0343568
-0.42857051 3.2566295 1.0348884
-0.42605251 3.250782 1.0353831
-0.42223084 3.2457855 1.0348414
-0.41840726 3.240787 1.0342996
-0.41458106 3.2357864 1.0337577
-0.41075319 3.2307823 1.0332152
-0.40692434 3.2257762 1.0326725
-0.4028081 3.2209489 1.0319043
-0.39791197 3.2166104 1.0305225
-0.3930099 3.2122669 1.0291394
-0.38810018 3.2079177 1.0277534
-0.38318545 3.203562 1.0263662
-0.37826288 3.199203 1.0249763
-0.37333578 3.1948364 1.0235865
-0.36751699 3.1910098 1.0214999
-0.36163533 3.1872082 1.0193707
-0.35574362 3.1833985 1.0172375
-0.34412813 3.1830645 1.0106372
-0.33193964 3.1830313 1.0036061
-0.31967032 3.1829982 0.9965294
-0.30707163 3.1831157 0.98921138
-0.29920736 3.1803463 0.98559123
-0.29226738 3.1770015 0.98269659
-0.28530714 3.1736486 0.97979456
-0.27832997 3.1702859 0.97688442
-0.27133372 3.1669149 0.9739666
-0.2636241 3.1639407 0.97050458
-0.25562063 3.1611154 0.96682358
-0.24759087 3.1582789 0.9631297
-0.2395335 3.1554339 0.95942414
-0.2314499 3.1525791 0.95570523
-0.22270346 3.1500776 0.95148689
-0.21344979 3.147836 0.94688815
-0.20415775 3.145587 0.94226915
-0.19482686 3.1433265 0.93763298
-0.18545593 3.141058 0.93297505
-0.17480101 3.139477 0.92734694
-0.16393182 3.1379762 0.92156738
-0.41163063 3.3437755 1.0036693
-0.42040703 3.3300779 1.0132742
-0.42359912 3.3202419 1.0183808
-0.42677456 3.3104539 1.0234621
-0.42704445 3.3026581 1.0262085
-0.42655498 3.2953913 1.0283412
-0.42606884 3.2881367 1.030473
-0.42558247 3.2808979 1.0325992
-0.42327949 3.274878 1.0332738
-0.42080203 3.2689769 1.0338088
-0.418322 3.2630808 1.0343409
-0.41584358 3.2571878 1.0348727
-0.41336805 3.2512963 1.035405
-0.40956232 3.2462709 1.0348843
-0.40572682 3.241262 1.0343411
-0.40188843 3.2362499 1.0337965
-0.39804864 3.231235 1.0332534
-0.3942067 3.226218 1.0327083
-0.39012143 3.2213523 1.0319742
-0.38520646 3.2170048 1.0305883
-0.38028219 3.2126524 1.0292009
-0.37535554 3.2082934 1.0278131
-0.37042013 3.2039289 1.0264227
-0.36547869 3.1995587 1.0250301
-0.36053109 3.195183 1.0236354
-0.35395032 3.191803 1.0209697
-0.34182501 3.1917989 1.0139909
-0.32962078 3.1917942 1.0069665
-0.31733599 3.1917903 0.99989498
-0.30518919 3.1916533 0.99294716
-0.29917946 3.1877766 0.99077582
-0.29305556 3.1839547 0.9885208
-0.28610036 3.1806114 0.98562735
-0.27912605 3.1772599 0.98272628
-0.27213407 3.1738989 0.97981781
-0.26512185 3.1705294 0.97690046
-0.25809222 3.1671512 0.97397691
-0.25034139 3.1641719 0.97050512
-0.24229828 3.1613395 0.96681529
-0.23422708 3.158498 0.96311331
-0.22612965 3.1556466 0.95939845
-0.21800336 3.152786 0.95567191
-0.20919684 3.1502874 0.95143205
-0.19989431 3.1480417 0.94682163
-0.1905522 3.1457868 0.94219357
-0.18117198 3.1435223 0.93754518
-0.17175074 3.1412497 0.93287724
-0.16100094 3.1396842 0.92720884
-0.39742622 3.345377 1.002605
-0.40710425 3.3310821 1.0128914
-0.41033643 3.3212197 1.0180111
-0.41355214 3.3114045 1.0231072
-0.41410515 3.3034108 1.0260719
-0.41362974 3.2961245 1.0282114
-0.41315386 3.2888534 1.0303466
-0.41267917 3.2815976 1.032478
-0.41050512 3.2754762 1.0332578
-0.40802291 3.2695644 1.0337911
-0.40554047 3.2636545 1.0343244
-0.40306184 3.2577457 1.0348591
-0.40058127 3.2518427 1.0353911
-0.3968356 3.2467597 1.0349256
-0.39298889 3.2417388 1.0343815
-0.38913885 3.2367163 1.0338368
-0.38528785 3.2316895 1.0332921
-0.38143328 3.2266624 1.0327462
-0.37737492 3.2217591 1.0320414
-0.37244114 3.2174017 1.0306545
-0.36749974 3.2130399 1.0292639
-0.36255112 3.2086713 1.0278715
-0.35759801 3.2042973 1.0264789
-0.34914631 3.2020743 1.0223656
-0.3383595 3.2012577 1.0164487
-0.32729813 3.2005699 1.0103303
-0.31499687 3.2005951 1.0032649
-0.30413523 3.1996958 0.99733227
-0.29812431 3.1958258 0.99516505
-0.29210076 3.1919494 0.99299282
-0.28606364 3.1880641 0.99081695
-0.27992138 3.1842275 0.9885636
-0.2729325 3.180877 0.98566347
-0.26592577 3.1775188 0.9827559
-0.25889999 3.1741507 0.97984147
-0.25185487 3.1707742 0.97691745
-0.24479136 3.1673877 0.97398722
-0.23700045 3.1644037 0.97050518
-0.22891566 3.1615653 0.96680725
-0.2208032 3.1587179 0.96309733
-0.21266428 3.1558597 0.95937461
-0.20449796 3.1529925 0.95563877
-0.19562969 3.1504984 0.9513765
-0.18627615 3.1482475 0.94675654
-0.17688352 3.1459882 0.94211698
-0.1674532 3.1437192 0.93745738
-0.15798117 3.1414413 0.93277824
-0.38314077 3.3469892 1.0015324
-0.39374068 3.3320894 1.012509
-0.39701077 3.322201 1.0176414
-0.40026629 3.3123589 1.0227499
-0.40110603 3.3041656 1.0259337
-0.40064111 3.2968626 1.0280788
-0.4001781 3.2895739 1.0302192
-0.3997151 3.2822998 1.0323547
-0.39766973 3.2760799 1.0332383
-0.39518347 3.2701538 1.0337732
-0.39270008 3.264231 1.0343076
-0.39021641 3.2583101 1.0348424
-0.38773704 3.2523913 1.0353777
-0.38405311 3.2472496 1.0349687
-0.38019305 3.2422192 1.0344216
-0.37633276 3.2371843 1.033877
-0.37246889 3.2321463 1.03333
-0.36860311 3.2271073 1.0327837
-0.36457333 3.2221665 1.0321107
-0.35961929 3.2178001 1.0307193
-0.35326448 3.2142973 1.0282433
-0.34249508 3.2135148 1.0223444
-0.33166495 3.2127292 1.0164129
-0.32077658 3.2119379 1.0104495
-0.30982533 3.211144 1.0044509
-0.30257884 3.2080498 1.0013299
-0.29706797 3.2038803 0.99955547
-0.29104179 3.2000098 0.99738771
-0.28500253 3.1961317 0.99521524
-0.27895227 3.1922467 0.99303889
-0.27288961 3.1883519 0.99085855
-0.26672804 3.1845016 0.98860639
-0.25970629 3.1811452 0.98570025
-0.25266522 3.1777792 0.98278534
-0.24560626 3.1744034 0.97986418
-0.23852728 3.1710188 0.97693491
-0.23142947 3.1676254 0.97399706
-0.2235966 3.1646371 0.97050589
-0.21547104 3.1617923 0.96679938
-0.20731805 3.1589382 0.96308094
-0.19913766 3.1560738 0.95934886
-0.1909284 3.1532018 0.95560467
-0.18199769 3.1507101 0.95132142
-0.17259504 3.1484549 0.94669068
-0.16315232 3.1461911 0.94203967
-0.15366957 3.1439168 0.93736959
-0.36878261 3.3486066 1.0004593
-0.38030609 3.3331037 1.0121205
-0.38361692 3.3231885 1.0172673
-0.38691157 3.3133202 1.0223892
-0.38804588 3.3049245 1.0257963
-0.38759428 3.2976038 1.0279471
-0.38714224 3.2902968 1.0300915
-0.38669187 3.2830052 1.032233
-0.38477713 3.2766855 1.033221
-0.3822892 3.2707455 1.0337563
-0.37980101 3.2648089 1.0342916
-0.37731686 3.2588744 1.0348277
-0.37483418 3.2529428 1.0353638
-0.37121156 3.2477427 1.0350106
-0.36734143 3.2426994 1.0344638
-0.36346754 3.2376535 1.0339171
-0.35959175 3.2326055 1.0333699
-0.35513821 3.2279167 1.0323743
-0.34562299 3.2263885 1.0274571
-0.33581364 3.2250087 1.022323
-0.32494056 3.2242522 1.0163783
-0.31400812 3.2234912 1.0104001
-0.30462036 3.2217393 1.0056292
-0.29957166 3.2172973 1.0042139
-0.29451504 3.2128494 1.0027963
-0.28945348 3.208395 1.0013775
-0.28394142 3.2042031 0.99961567
-0.27788758 3.200325 0.9974429
-0.2718223 3.1964381 0.9952668
-0.26574439 3.1925447 0.99308431
-0.25965551 3.188642 0.99089867
-0.25347462 3.1847775 0.98864889
-0.24641995 3.1814137 0.98573631
-0.23934574 3.17804 0.9828164
-0.23225032 3.1746578 0.97988713
-0.22513844 3.1712654 0.97695142
-0.21800727 3.1678648 0.97400784
-0.21013243 3.1648707 0.97050571
-0.20196587 3.1620207 0.96679103
-0.19377115 3.1591606 0.96306425
-0.18554881 3.1562908 0.95932382
-0.17729808 3.1534109 0.95557123
-0.1683037 3.1509237 0.95126557
-0.15885027 3.1486635 0.94662362
-0.3668074 3.3341219 1.0117333
-0.37016159 3.3241782 1.0168947
-0.37349463 3.314285 1.022029
-0.37492421 3.3056877 1.0256569
-0.37448576 3.2983477 1.0278137
-0.37404469 3.2910242 1.0299636
-0.3736074 3.2837136 1.0321113
-0.37182331 3.2772954 1.0332015
-0.36933297 3.2713416 1.0337385
-0.36684477 3.2653902 1.034276
-0.36435753 3.2594414 1.0348133
-0.36187148 3.2534964 1.0353509
-0.35831246 3.2482376 1.035053
-0.35151696 3.2450299 1.0322475
-0.3419717 3.2435367 1.027319
-0.33238092 3.2420373 1.0223664
-0.32274842 3.24053 1.017392
-0.31306916 3.2390158 1.0123943
-0.30507931 3.2364194 1.0087093
-0.30114105 3.2312942 1.0081543
-0.29655898 3.2265615 1.0071032
-0.29149622 3.222116 1.0056868
-0.28642672 3.217664 1.0042684
-0.2813513 3.2132061 1.0028481
-0.27626875 3.2087431 1.0014257
-0.27075475 3.2045279 0.99967694
-0.26467469 3.2006414 0.99749947
-0.25858247 3.1967466 0.99531722
-0.25247809 3.1928437 0.99313158
-0.2463606 3.1889324 0.99094045
-0.24016184 3.1850555 0.9886921
-0.23307285 3.1816833 0.98577332
-0.22596455 3.1783018 0.98284644
-0.21883622 3.174912 0.97991097
-0.21168905 3.1715136 0.97696763
-0.2045233 3.1681051 0.97401786
-0.19660723 3.1651058 0.97050643
-0.18839845 3.1622491 0.9667834
-0.18016204 3.1593828 0.96304703
-0.17189701 3.1565068 0.95929921
-0.16360502 3.1536207 0.95553732
-0.15454677 3.1511371 0.95120996
-0.36001089 3.315254 1.0216669
-0.36174202 3.3064525 1.025519
-0.36131334 3.2990963 1.0276788
-0.36088556 3.291755 1.0298343
-0.36045998 3.2844272 1.0319858
-0.35881051 3.2779067 1.0331825
-0.35494637 3.2728229 1.0326561
-0.34693894 3.270396 1.0289198
-0.33890381 3.267961 1.0251697
-0.33083794 3.2655182 1.0214057
-0.32274559 3.2630656 1.0176291
-0.31462368 3.2606056 1.0138382
-0.30657923 3.2580683 1.0101177
-0.30374497 3.2522464 1.0104145
-0.29980123 3.2471178 1.0098596
-0.29585436 3.2419868 1.0093017
-0.29190773 3.2368526 1.0087454
-0.28795677 3.2317162 1.0081885
-0.28339502 3.2269497 1.0071651
-0.2783117 3.2224939 1.0057446
-0.2732234 3.2180321 1.0043229
-0.26812771 3.2135651 1.0028992
-0.26302439 3.2090907 1.0014749
