# .PCD v0.7 - Point Cloud Data file format
VERSION 0.7
FIELDS x y z
SIZE 4 4 4
TYPE F F F
COUNT 1 1 1
WIDTH 1516
HEIGHT 1
VIEWPOINT 0 0 0 1 0 0 0
POINTS 1516
DATA ascii
-1.720094 4.1681633 0.85683465
-1.7176921 4.1649413 0.85292649
-1.7148387 4.1618934 0.84828424
-1.7110209 4.1592293 0.8420732
-1.7058127 4.1571159 0.83359861
-1.6912885 4.420661 0.81778073
-1.6970832 4.4129448 0.82717705
-1.7014467 4.4061007 0.83425188
-1.7049472 4.3997831 0.83992934
-1.7078216 4.3938498 0.84459043
-1.7104418 4.3880787 0.84883976
-1.7126355 4.3825688 0.85239601
-1.714663 4.3771658 0.85568452
-1.7164072 4.3719349 0.8585124
-1.7180631 4.366765 0.86119795
-1.7194355 4.3617649 0.86342263
-1.7208043 4.3567739 0.86564159
-1.721936 4.351922 0.86747742
-1.7230211 4.3471031 0.86923647
-1.7240543 4.342319 0.87091303
-1.7249104 4.3376379 0.87230086
-1.7257657 4.332962 0.87368822
-1.7265425 4.3283339 0.87494707
-1.727205 4.323772 0.87602282
-1.7278683 4.3192129 0.87709737
-1.7284579 4.3146982 0.87805319
-1.7289535 4.310236 0.87885666
-1.7294489 4.3057761 0.87966013
-1.7298914 4.3013477 0.88037729
-1.7302356 4.2969718 0.88093615
-1.7305796 4.2925987 0.88149381
-1.7308998 4.2882409 0.88201332
-1.7311033 4.2839432 0.88234305
-1.7313068 4.2796469 0.88267326
-1.7315094 4.275352 0.88300252
-1.7315845 4.2711229 0.88312435
-1.7316518 4.2668982 0.88323283
-1.7317195 4.2626729 0.88334322
-1.7316914 4.2584963 0.88329744
-1.7316242 4.2543383 0.88318777
-1.7315556 4.2501802 0.88307643
-1.7314184 4.2460551 0.88285422
-1.73121 4.2419629 0.88251638
-1.7310014 4.2378702 0.88217807
-1.7307417 4.233799 0.88175774
-1.7303852 4.229774 0.8811779
-1.7300262 4.2257462 0.88059759
-1.7296211 4.2217393 0.87994027
-1.7290972 4.217783 0.87909079
-1.7285737 4.2138252 0.87824154
-1.7279806 4.2098951 0.87727928
-1.7272661 4.206017 0.87612104
-1.7265506 4.2021341 0.87496185
-1.7256978 4.1983099 0.87357783
-1.7247546 4.19452 0.87204766
-1.7237928 4.190733 0.87048864
-1.7225643 4.1870561 0.86849594
-1.7213321 4.1833744 0.8664999
-1.7198191 4.1798062 0.86404467
-1.7182078 4.1762724 0.86143303
-1.7162185 4.1728892 0.85820651
-1.7140703 4.1695614 0.85472393
-1.7112225 4.1665154 0.85010457
-1.7077907 4.1636953 0.84454107
-1.7032064 4.1613331 0.83710742
-1.6957819 4.1601124 0.82506704
-1.6823082 4.4286499 0.81104946
-1.6897972 4.4199066 0.82315302
-1.6947236 4.4127097 0.83111548
-1.6985426 4.406189 0.837286
-1.7017759 4.4000311 0.84251213
-1.7045438 4.3941598 0.84698582
-1.706876 4.388557 0.85075474
-1.709075 4.3830428 0.85430861
-1.7108715 4.3777709 0.85721302
-1.7126216 4.3725357 0.86004162
-1.7140847 4.3674731 0.86240649
-1.715462 4.3624668 0.86463118
-1.7167277 4.3575311 0.86667776
-1.717819 4.3526998 0.86844039
-1.7189069 4.3478751 0.87020063
-1.7198212 4.343154 0.87167668
-1.7206801 4.3384671 0.87306571
-1.7215383 4.333787 0.87445283
-1.7222129 4.3292098 0.8755424
-1.7228791 4.3246422 0.87661982
-1.7235447 4.3200779 0.87769508
-1.7240441 4.3156061 0.87850189
-1.7245414 4.3111382 0.8793056
-1.7250392 4.306673 0.88010979
-1.7253988 4.3022828 0.88069081
-1.7257445 4.2979012 0.8812511
-1.7260907 4.2935228 0.88180923
-1.7263321 4.2891989 0.88219976
-1.7265365 4.2848959 0.88253045
-1.7267405 4.2805939 0.88285971
-1.7268753 4.276329 0.88307714
-1.7269423 4.2720971 0.88318682
-1.7270107 4.2678661 0.88329673
-1.7270406 4.2636542 0.88334513
-1.7269728 4.259491 0.88323474
-1.7269034 4.2553272 0.88312292
-1.7268249 4.2511683 0.88299561
-1.726615 4.2470713 0.88265753
-1.7264063 4.2429729 0.88231969
-1.7261966 4.238874 0.88198185
-1.7258487 4.234839 0.88141942
-1.725489 4.2308083 0.88083839
-1.7251301 4.2267742 0.88025784
-1.7246251 4.222806 0.87944126
-1.7240984 4.2188454 0.87859058
-1.7235718 4.21488 0.87773895
-1.7228633 4.2109962 0.87659359
-1.7221448 4.2071114 0.87543344
-1.7213793 4.2032442 0.87419558
-1.7204328 4.1994534 0.87266493
-1.7194829 4.1956573 0.8711319
-1.7183471 4.1919379 0.86929512
-1.7171102 4.1882563 0.86729646
-1.7157412 4.1846251 0.86508226
-1.7141241 4.1810923 0.86246967
-1.7123368 4.1776223 0.85958099
-1.7101808 4.1742992 0.85609722
-1.7076017 4.1711421 0.85192919
-1.7045584 4.1681643 0.84701014
-1.7005987 4.1655512 0.84061074
-1.694438 4.1638231 0.83065438
-1.6680856 4.4397769 0.79594064
-1.6820375 4.427165 0.81841326
-1.6877708 4.4194698 0.82764959
-1.6921036 4.4126277 0.83462858
-1.6956367 4.4062777 0.84032011
-1.6984873 4.4003448 0.84491134
-1.7010915 4.3945699 0.84910583
-1.7033044 4.3890347 0.85267138
-1.7053152 4.3836288 0.85590935
-1.7070744 4.378377 0.85874319
-1.7087145 4.3732028 0.86138582
-1.7100992 4.3681831 0.86361551
-1.7114816 4.3631711 0.86584187
-1.712597 4.3583159 0.86764073
-1.7136934 4.3534789 0.86940527
-1.7147145 4.3486891 0.8710506
-1.7155788 4.3439908 0.87244177
-1.7164409 4.3392987 0.87383199
-1.717205 4.3346648 0.87506199
-1.7178742 4.3300872 0.87614036
-1.7185426 4.3255138 0.87721682
-1.7191186 4.3209929 0.87814546
-1.7196193 4.3165159 0.8789506
-1.720119 4.3120422 0.87975645
-1.7205471 4.3076091 0.88044596
-1.7208942 4.3032198 0.88100624
-1.7212429 4.2988329 0.88156629
-1.7215476 4.2944698 0.88205695
-1.7217534 4.2901602 0.8823874
-1.7219576 4.285851 0.88271809
-1.7221518 4.281549 0.88302994
-1.7222193 4.2773108 0.88314009
-1.7222879 4.2730742 0.88324976
-1.7223563 4.268837 0.88335943
-1.722307 4.264658 0.88328028
-1.7222376 4.260489 0.88316989
-1.7221699 4.256319 0.8830595
-1.7220088 4.2521939 0.88280034
-1.7217982 4.2480912 0.88246155
-1.7215881 4.2439871 0.88212228
-1.7213014 4.2399182 0.88166118
-1.7209405 4.2358823 0.88108015
-1.7205784 4.2318449 0.88049698
-1.7201406 4.2278414 0.8797915
-1.7196125 4.223877 0.87893987
-1.7190831 4.2199092 0.87808824
-1.7184492 4.2159863 0.87706685
-1.7177278 4.2121 0.87590551
-1.7170064 4.208209 0.87474298
-1.7161009 4.2043972 0.87328339
-1.7151475 4.2006001 0.87174845
-1.7141206 4.1968303 0.8700943
-1.7128801 4.1931481 0.86809516
-1.7116365 4.1894603 0.86609221
-1.7100313 4.1859221 0.86350632
-1.7084044 4.1823831 0.86088681
-1.7062833 4.1790462 0.85747004
-1.7039759 4.1757751 0.85375309
-1.7010838 4.1727381 0.84909439
-1.6973914 4.1700182 0.84314632
-1.69239 4.1678224 0.83508968
-1.6820998 4.167779 0.81851435
-1.6731925 4.4350848 0.81198478
-1.6805518 4.4264021 0.8238008
-1.6854093 4.4192309 0.83159971
-1.6891912 4.4127178 0.83767128
-1.6924045 4.406558 0.84282947
-1.6951973 4.4006586 0.84731388
-1.6975095 4.3950529 0.85102534
-1.6997294 4.389514 0.85459042
-1.7015072 4.3842397 0.85744381
-1.7032728 4.378984 0.86027884
-1.7047163 4.373919 0.86259723
-1.7061069 4.3688927 0.8648293
-1.7073591 4.3639517 0.86683941
-1.7084603 4.3591018 0.86860681
-1.7095588 4.354259 0.87037182
-1.710459 4.3495331 0.8718164
-1.7113268 4.34483 0.873209
-1.7121806 4.3401389 0.87457943
-1.7128528 4.3355508 0.87565923
-1.7135252 4.3309669 0.87673903
-1.7141783 4.3263969 0.87778831
-1.7146804 4.3219109 0.87859488
-1.7151833 4.3174281 0.87940168
-1.7156804 4.312952 0.88019896
-1.7160304 4.3085542 0.88076019
-1.7163792 4.3041601 0.88132167
-1.7167283 4.299767 0.88188243
-1.7169538 4.2954402 0.88224387
-1.7171609 4.2911229 0.88257551
-1.7173667 4.286808 0.8829062
-1.7174832 4.2825398 0.88309264
-1.7175509 4.2782969 0.88320303
-1.7176192 4.2740531 0.8833127
-1.7176292 4.2698402 0.88332748
-1.7175601 4.2656651 0.88321733
-1.7174911 4.2614889 0.88310599
-1.7173891 4.2573299 0.88294315
-1.7171783 4.253222 0.88260317
-1.7169662 4.2491131 0.88226461
-1.7167423 4.2450099 0.8819046
-1.7163796 4.2409701 0.88132095
-1.7160156 4.2369289 0.88073874
-1.715645 4.2328892 0.88014317
-1.7151146 4.2289209 0.87929082
-1.7145827 4.2249513 0.87843704
-1.7140254 4.2209892 0.8775413
-1.7133002 4.2171001 0.87637806
-1.7125752 4.2132082 0.87521362
-1.7117593 4.209352 0.87390375
-1.7108023 4.205554 0.87236691
-1.7098444 4.2017512 0.87082958
-1.7086395 4.198051 0.86889553
-1.7073925 4.1943631 0.86689234
-1.7059308 4.1907611 0.86454582
-1.7042975 4.1872244 0.86192465
-1.7023807 4.1838002 0.85884643
-1.7002022 4.1804752 0.85535026
-1.6974441 4.1773853 0.85092115
-1.6941416 4.1745062 0.84562016
-1.6897733 4.1720543 0.83860636
-1.682825 4.1706471 0.82745123
-1.6616864 4.4446096 0.80136418
-1.6727394 4.4337006 0.81905079
-1.6784178 4.426024 0.82813644
-1.6827161 4.419188 0.83501458
-1.6862783 4.4128079 0.8407135
-1.6891043 4.4068747 0.8452363
-1.6916895 4.4010968 0.84937406
-1.6939236 4.3955369 0.85294843
-1.6959176 4.3901267 0.85613823
-1.6976931 4.3848529 0.85898042
-1.6993158 4.3796759 0.86157703
-1.7007129 4.3746347 0.86381197
-1.7021017 4.3696079 0.86603355
-1.7032089 4.3647451 0.86780572
-1.704314 4.359889 0.86957502
-1.7053225 4.355094 0.87118769
-1.7061942 4.350379 0.87258339
-1.7070658 4.3456697 0.8739779
-1.7078159 4.341032 0.87517786
-1.7084911 4.3364382 0.87625885
-1.7091662 4.3318481 0.8773396
-1.7097282 4.327323 0.8782382
-1.7102332 4.3228321 0.87904572
-1.7107376 4.3183432 0.87985253
-1.7111509 4.3139048 0.88051414
-1.7115017 4.3095021 0.8810761
-1.7118528 4.3051009 0.88163805
-1.7121414 4.300735 0.88209963
-1.7123494 4.296411 0.88243222
-1.7125559 4.292089 0.88276339
-1.7127326 4.2877841 0.88304615
-1.7128011 4.283534 0.88315582
-1.7128694 4.279285 0.8832655
-1.712938 4.2750359 0.88337517
-1.7128686 4.2708549 0.88326359
-1.7127993 4.266674 0.88315296
-1.7127306 4.2624931 0.8830421
-1.712545 4.2583671 0.8827467
-1.712333 4.2542539 0.88240671
-1.7121215 4.2501392 0.8820672
-1.7118064 4.2460718 0.88156414
-1.7114425 4.2420259 0.88098049
-1.7110777 4.237978 0.8803978
-1.7106048 4.2339792 0.87964058
-1.7100722 4.2300053 0.87878799
-1.7095373 4.226028 0.87793303
-1.7088623 4.2221131 0.87685227
-1.7081343 4.2182178 0.87568808
-1.7074049 4.2143202 0.87452102
-1.7064471 4.2105193 0.87298775
-1.7054849 4.2067151 0.87144804
-1.7043905 4.2029643 0.86969829
-1.7031376 4.1992769 0.86769128
-1.701822 4.1956091 0.86558747
-1.700182 4.1920753 0.8629632
-1.6984712 4.1885624 0.86022496
-1.6962848 4.1852422 0.85672712
-1.6937989 4.1820374 0.85274982
-1.690877 4.1790023 0.84807372
-1.6869192 4.1763864 0.84173989
-1.6814423 4.1743793 0.83297753
-1.6640315 4.4415517 0.81292391
-1.6712593 4.43293 0.82445192
-1.6760528 4.4257827 0.83209682
-1.6797953 4.4192777 0.8380661
-1.682982 4.4131188 0.84314823
-1.6858007 4.4071918 0.84764409
-1.6880924 4.4015846 0.85129929
-1.6903055 4.3960371 0.8548286
-1.6920924 4.3907447 0.85767746
-1.6938734 4.3854656 0.86051941
-1.6953002 4.3803978 0.86279345
-1.6967018 4.3753529 0.86502957
-1.6979392 4.3704071 0.86700249
-1.6990504 4.3655391 0.86877441
-1.7001591 4.3606787 0.8705442
-1.701045 4.355948 0.87195563
-1.70192 4.3512268 0.87335181
-1.7027625 4.3465309 0.87469435
-1.7034411 4.3419271 0.87577701
-1.7041194 4.337327 0.87685919
-1.7047603 4.3327518 0.87788129
-1.7052667 4.3282518 0.87868857
-1.7057734 4.3237538 0.87949753
-1.7062567 4.319272 0.88026857
-1.7066097 4.3148608 0.88083124
-1.706962 4.310452 0.88139296
-1.7073143 4.306046 0.88195515
-1.7075231 4.3017149 0.88228822
-1.7077309 4.2973862 0.88262033
-1.7079394 4.2930579 0.88295221
-1.7080376 4.2887869 0.88310909
-1.7081063 4.2845311 0.88321877
-1.7081755 4.2802763 0.88332915
-1.7081647 4.2760601 0.88331079
-1.7080945 4.271874 0.88319969
-1.7080245 4.2676868 0.8830874
-1.7078998 4.2635269 0.88288903
-1.7076868 4.259408 0.88254833
-1.707474 4.2552881 0.8822093
-1.7072208 4.2511859 0.88180614
-1.7068546 4.2471371 0.88122225
-1.7064884 4.2430849 0.88063812
-1.706085 4.239049 0.87999415
-1.705548 4.2350721 0.87913895
-1.7050127 4.231092 0.8782835
-1.7044137 4.227138 0.87732792
-1.7036828 4.2232409 0.87616253
-1.7029495 4.2193403 0.8749938
-1.7020817 4.2154961 0.87360907
-1.7011149 4.2116909 0.87206793
-1.7001324 4.2078881 0.8705008
-1.6988745 4.2042012 0.86849523
-1.6976134 4.2005072 0.86648393
-1.6960607 4.1969342 0.86400747
-1.6944108 4.1933942 0.86137652
-1.692361 4.1900163 0.85810709
-1.690151 4.1866951 0.85458159
-1.6872185 4.1836681 0.84990573
-1.6836565 4.180891 0.84422374
-1.6788678 4.178606 0.83658695
-1.6704702 4.1777954 0.82319498
-1.6530116 4.4507999 0.80318642
-1.6633948 4.4402709 0.81969237
-1.6690145 4.4326129 0.82862544
-1.673281 4.4257817 0.8354063
-1.6768359 4.4193907 0.84105778
-1.6796706 4.4134388 0.84556389
-1.6822371 4.4076591 0.84964323
-1.6844912 4.4020739 0.85322642
-1.6864682 4.3966599 0.8563695
-1.6882607 4.3913641 0.85921812
-1.6898674 4.3861828 0.86177111
-1.6912774 4.3811216 0.86401296
-1.6926519 4.3760891 0.86619902
-1.6937686 4.3712091 0.86797285
-1.6948836 4.3663349 0.86974645
-1.6958778 4.3615351 0.87132597
-1.6967583 4.3568029 0.87272549
-1.6976371 4.352077 0.87412357
-1.698375 4.3474331 0.87529469
-1.699056 4.342824 0.87637782
-1.699738 4.3382187 0.87746167
-1.7002861 4.3336878 0.87833285
-1.7007941 4.3291821 0.87914181
-1.7013037 4.3246789 0.87995172
-1.7017027 4.3202362 0.88058543
-1.7020571 4.3158197 0.8811481
-1.7024109 4.3114052 0.88171101
-1.702683 4.307035 0.88214445
-1.7028923 4.3026981 0.88247681
-1.7031019 4.2983632 0.88280916
-1.7032608 4.294055 0.88306141
-1.7033293 4.289793 0.88317108
-1.7033987 4.285531 0.88328123
-1.7034464 4.28128 0.883358
-1.7033769 4.2770882 0.88324618
-1.7033076 4.2728949 0.88313603
-1.7032371 4.268702 0.88302445
-1.7030275 4.2645769 0.8826921
-1.7028137 4.2604523 0.88235068
-1.7025995 4.2563272 0.88201046
-1.7022564 4.2522612 0.88146544
-1.7018881 4.2482061 0.8808794
-1.7015195 4.2441483 0.8802948
-1.701014 4.2401519 0.87949085
-1.7004757 4.2361689 0.87863445
-1.6999365 4.232183 0.87777734
-1.6992192 4.2282763 0.8766377
-1.6984837 4.2243729 0.87546825
-1.6977055 4.2204852 0.87423182
-1.6967351 4.2166791 0.87268925
-1.6957641 4.2128673 0.87114573
-1.6946021 4.2091351 0.86929893
-1.6933358 4.205442 0.86728597
-1.6919301 4.2018032 0.86505032
-1.6902739 4.1982651 0.86241913
-1.688431 4.194798 0.85948896
-1.6862231 4.1914773 0.85597992
-1.6835561 4.1883402 0.85174084
-1.6803901 4.1853991 0.8467083
-1.6762421 4.1828532 0.84011459
-1.6697354 4.1812701 0.82977104
-1.6548369 4.4480429 0.81388736
-1.6619188 4.4394927 0.82510614
-1.666647 4.4323688 0.83259678
-1.6703527 4.4258718 0.83846855
-1.6735144 4.419713 0.84347773
-1.6763573 4.4137588 0.84798193
-1.6786257 4.4081516 0.85157585
-1.6808225 4.4025998 0.85505629
-1.6826255 4.397285 0.8579123
-1.684413 4.3919888 0.86074495
-1.6858311 4.3869138 0.86299086
-1.6872466 4.3818469 0.86523366
-1.688468 4.3768978 0.86716962
-1.6895895 4.3720112 0.86894608
-1.6906945 4.3671398 0.87069702
-1.6915793 4.3623981 0.87209749
-1.692462 4.3576598 0.87349749
-1.6932901 4.3529577 0.87480974
-1.6939764 4.3483381 0.87589598
-1.6946611 4.3437228 0.87698102
-1.6952883 4.3391418 0.87797451
-1.6958008 4.3346272 0.87878561
-1.6963118 4.3301153 0.87959576
-1.6967798 4.3256283 0.88033819
-1.6971366 4.3212032 0.88090277
-1.6974925 4.316781 0.88146639
-1.6978285 4.3123703 0.88199902
-1.6980397 4.3080263 0.8823328
-1.6982496 4.3036842 0.88266563
-1.6984596 4.2993431 0.8829987
-1.6985389 4.2950692 0.88312387
-1.6986089 4.290801 0.88323474
-1.6986783 4.2865329 0.88334513
-1.6986462 4.2823162 0.88329458
-1.6985751 4.2781181 0.883183
-1.698505 4.2739201 0.88307071
-1.6983559 4.2697592 0.88283443
-1.6981409 4.2656302 0.8824935
-1.6979251 4.2614989 0.88215303
-1.6976457 4.2573991 0.88170838
-1.6972756 4.2533393 0.88112259
-1.6969056 4.2492771 0.88053656
-1.6964681 4.2452459 0.87984324
-1.6959267 4.2412601 0.87898564
-1.6953862 4.2372704 0.87812853
-1.6947442 4.2333241 0.87711215
-1.694006 4.2294183 0.87594318
-1.6932667 4.2255092 0.87477207
-1.6923454 4.2216783 0.87331223
-1.6913705 4.217865 0.87176704
-1.69032 4.2140813 0.87010384
-1.6890495 4.2103882 0.86809134
-1.6877763 4.2066879 0.86607361
-1.6861291 4.203146 0.86346316
-1.6844637 4.1996012 0.86082435
-1.6822784 4.1962719 0.85736275
-1.6798879 4.193018 0.85357642
-1.6769264 4.1899929 0.84888387
-1.6730962 4.1873202 0.84281516
-1.667881 4.1852064 0.83455276
-1.6443081 4.4570107 0.80503035
-1.6540114 4.4468689 0.82035208
-1.6595631 4.4392357 0.82911873
-1.6637955 4.4324098 0.83580184
-1.6673303 4.4260168 0.8413825
-1.6701908 4.4200368 0.84590006
-1.6727372 4.4142537 0.84992194
-1.6750103 4.4086447 0.85351062
-1.6769671 4.4032297 0.85660172
-1.6787765 4.3979101 0.85945797
-1.6803644 4.3927269 0.86196518
-1.6817892 4.3876448 0.86421418
-1.6831491 4.382607 0.86636305
-1.6842766 4.377708 0.86814308
-1.6854023 4.3728161 0.86992073
-1.6863825 4.368011 0.87146902
-1.687271 4.3632622 0.87287116
-1.6881573 4.3585191 0.87427139
-1.6888802 4.3538709 0.87541199
-1.6895688 4.3492451 0.8764987
-1.6902565 4.344624 0.87758493
-1.6907895 4.3400888 0.87842774
-1.6913042 4.335568 0.87923956
-1.691817 4.3310499 0.88004971
-1.6922002 4.3266039 0.88065577
-1.6925583 4.3221731 0.8812201
-1.692915 4.3177443 0.88178444
-1.6931704 4.3133702 0.88218808
-1.6933827 4.309021 0.88252163
-1.6935935 4.3046722 0.88285518
-1.6937338 4.3003612 0.88307714
-1.6938044 4.2960873 0.88318729
-1.6938736 4.2918119 0.88329768
-1.6939018 4.287559 0.88334227
-1.6938307 4.2833562 0.88323045
-1.6937602 4.279151 0.88311887
-1.6936717 4.2749562 0.8829782
-1.6934545 4.270822 0.88263655
-1.6932386 4.266686 0.88229489
-1.6930219 4.2625504 0.88195252
-1.6926513 4.2584863 0.88136601
-1.6922784 4.2544212 0.88077903
-1.6919076 4.2503529 0.88019252
-1.6913664 4.2463622 0.87933898
-1.6908228 4.2423701 0.87847948
-1.6902596 4.2383833 0.87759042
-1.6895177 4.2344761 0.87641954
-1.6887748 4.2305641 0.87524676
-1.6879445 4.2266884 0.87393522
-1.6869659 4.2228751 0.87238955
-1.6859844 4.2190561 0.87084007
-1.6847532 4.2153444 0.86889577
-1.6834749 4.2116451 0.86687803
-1.6819758 4.2080359 0.86450934
-1.6803041 4.204494 0.86187029
-1.6783276 4.2010751 0.85874844
-1.6760972 4.197753 0.85522676
-1.6732452 4.194685 0.85072279
-1.6698148 4.1918459 0.84530687
-1.6652447 4.1894693 0.8380897
-1.657919 4.1882234 0.82652283
-1.6456116 4.4545579 0.8148756
-1.652447 4.4461379 0.82563305
-1.6571907 4.4389896 0.83309889
-1.6608579 4.4325008 0.83887053
-1.663996 4.426343 0.84381008
-1.6668242 4.420383 0.84826016
-1.669111 4.414752 0.85186052
-1.6712897 4.4091959 0.85528898
-1.6731086 4.4038601 0.85815072
-1.6748786 4.398561 0.8609376
-1.6763099 4.393465 0.86318946
-1.6777384 4.3883791 0.8654387
-1.6789448 4.3834248 0.86733627
-1.6800759 4.37852 0.86911821
-1.6811682 4.3736429 0.87083626
-1.6820613 4.3688831 0.87224221
-1.6829529 4.3641291 0.87364578
-1.6837677 4.3594208 0.87492728
-1.6844598 4.3547859 0.8760159
-1.6851506 4.3501539 0.87710333
-1.6857631 4.3455691 0.87806749
-1.68628 4.3410392 0.87888122
-1.6867961 4.3365121 0.87969398
-1.6872504 4.3320198 0.88040829
-1.6876093 4.3275809 0.8809731
-1.6879683 4.3231449 0.88153934
-1.6882885 4.3187299 0.88204288
-1.6885008 4.314373 0.88237786
-1.688714 4.3100171 0.88271213
-1.6889149 4.3056688 0.88302946
-1.6889863 4.3013868 0.88314033
-1.6890557 4.2971072 0.88325071
-1.6891263 4.2928262 0.88336086
-1.6890728 4.2886081 0.88327694
-1.6890019 4.2843981 0.88316536
-1.6889312 4.2801881 0.88305354
-1.6887567 4.2760282 0.88277936
-1.6885395 4.2718873 0.88243771
-1.688323 4.267746 0.88209677
-1.6880133 4.2636471 0.88160992
-1.6876397 4.2595773 0.88102221
-1.6872668 4.255506 0.88043523
-1.6867943 4.2514782 0.8796916
-1.6862478 4.2474833 0.87883234
-1.6857011 4.243484 0.87797141
-1.6850185 4.2395463 0.87689614
-1.6842723 4.2356319 0.87572145
-1.6835264 4.2317142 0.87454748
-1.6825509 4.2278962 0.8730123
-1.6815664 4.2240772 0.87146282
-1.6804478 4.2203112 0.86970186
-1.6791644 4.2166133 0.86768246
-1.6778129 4.2129374 0.86555648
-1.6761353 4.2093973 0.86291504
-1.6743672 4.2058864 0.86013246
-1.672129 4.202569 0.85661101
-1.6695567 4.1993823 0.85256243
-1.6665292 4.1963758 0.8477962
-1.6624589 4.1937952 0.84139132
-1.6565493 4.191967 0.83208966
-1.6355681 4.4632478 0.80687881
-1.6445875 4.4534969 0.82102752
-1.6500708 4.445889 0.82962847
-1.6542618 4.4390726 0.83620214
-1.6577716 4.4326787 0.84170842
-1.6606593 4.4266701 0.84623861
-1.663186 4.420886 0.85020185
-1.6654811 4.4152498 0.85380125
-1.6674179 4.409833 0.85684013
-1.6692426 4.4044919 0.85970306
-1.6708117 4.3993058 0.86216426
-1.6722472 4.3942051 0.86441565
-1.673594 4.3891621 0.86652899
-1.6747326 4.384243 0.86831474
-1.6758679 4.379333 0.87009621
-1.6768336 4.3745232 0.87161016
-1.6777304 4.3697572 0.8730166
-1.6786256 4.3649969 0.87442183
-1.6793339 4.3603439 0.87553167
-1.6800282 4.3557019 0.87662077
-1.6807208 4.3510661 0.87770724
-1.6812394 4.3465271 0.87852216
-1.6817585 4.34199 0.87933636
-1.6822784 4.3374572 0.88014984
-1.6826454 4.3330069 0.88072681
-1.6830058 4.3285623 0.88129282
-1.6833668 4.3241191 0.88185811
-1.6836046 4.3197422 0.88223267
-1.6838185 4.3153791 0.88256741
-1.6840324 4.311017 0.88290215
-1.6841534 4.306704 0.88309264
-1.6842241 4.3024158 0.88320279
-1.6842947 4.2981291 0.88331437
-1.6843005 4.2938752 0.88332462
-1.6842299 4.28966 0.88321304
-1.684159 4.2854443 0.88310122
-1.6840454 4.2812481 0.88292384
-1.6838274 4.2771029 0.88258171
-1.6836095 4.2729559 0.88223934
-1.6833634 4.2688222 0.88185406
-1.6829891 4.2647481 0.88126588
-1.6826147 4.2606721 0.8806777
-1.6822115 4.2566071 0.88004541
-1.6816622 4.2526083 0.8791852
-1.6811125 4.2486072 0.87832308
-1.6805079 4.244628 0.87737465
-1.6797583 4.2407122 0.87619853
-1.6790097 4.2367921 0.87502337
-1.6781259 4.2329292 0.87363696
-1.6771363 4.2291093 0.87208605
-1.6761324 4.2252893 0.8705101
-1.6748441 4.221591 0.86848927
-1.6735518 4.2178869 0.86646366
-1.6719588 4.2143092 0.86396265
-1.6702706 4.210762 0.86131501
-1.6681556 4.2073922 0.85799837
-1.6658635 4.2040863 0.85440302
-1.6628613 4.2010732 0.84969354
-1.6591606 4.1983399 0.84388733
-1.6541579 4.1961379 0.83604097
-1.6447015 4.1957831 0.82120562
-1.6363387 4.4611058 0.81586552
-1.6429095 4.452827 0.82613873
-1.6476359 4.4456749 0.83352757
-1.6513164 4.4391637 0.83928275
-1.6544247 4.4330101 0.84414148
-1.6572354 4.4270458 0.84853625
-1.6595442 4.4213891 0.85214567
-1.6617053 4.4158301 0.8555243
-1.6635413 4.41047 0.8583951
-1.6652944 4.4051681 0.86113644
-1.6667376 4.4000521 0.86339307
-1.6681782 4.3949451 0.86564493
-1.6693681 4.3899879 0.86750603
-1.6705108 4.3850641 0.86929131
-1.671589 4.3801818 0.87097788
-1.6724902 4.3754048 0.87238693
-1.6733904 4.3706331 0.87379384
-1.6741908 4.365921 0.87504625
-1.6748896 4.361269 0.87613773
-1.6755869 4.3566217 0.87722802
-1.6761847 4.3520322 0.8781631
-1.6767061 4.347486 0.87897778
-1.6772281 4.3429441 0.87979317
-1.6776657 4.338449 0.88047862
-1.6780291 4.3339949 0.88104606
-1.6783907 4.3295441 0.8816123
-1.6786952 4.3251262 0.88208818
-1.6789088 4.320756 0.88242269
-1.6791234 4.3163872 0.88275814
-1.6793067 4.3120351 0.8830452
-1.6793777 4.3077421 0.88315558
-1.6794498 4.3034482 0.88326693
-1.6795158 4.2991571 0.88337183
-1.679445 4.2949362 0.88326025
-1.6793735 4.2907143 0.88314819
-1.6793017 4.2864919 0.88303566
-1.6791029 4.2823319 0.88272524
-1.678884 4.2781811 0.88238239
-1.6786638 4.2740283 0.88203955
-1.6783259 4.2699323 0.88151073
-1.6779485 4.265852 0.88092113
-1.6775711 4.2617702 0.88033175
-1.6770643 4.2577472 0.8795383
-1.6765134 4.2537422 0.87867665
-1.6759609 4.2497349 0.87781358
-1.6752341 4.2458053 0.87667751
-1.6744809 4.2418833 0.87549996
-1.6736907 4.2379742 0.87426376
-1.6726973 4.2341523 0.87271094
-1.6717021 4.2303252 0.8711555
-1.670514 4.2265801 0.86929679
-1.6692181 4.2228761 0.86727071
-1.6677727 4.2192302 0.86501217
-1.6660794 4.2156863 0.8623631
-1.664175 4.212224 0.85938668
-1.6619147 4.2089062 0.85585308
-1.6591557 4.20579 0.85153818
-1.6558595 4.202888 0.84638596
-1.6515143 4.2004151 0.8395927
-1.6446319 4.1989913 0.82883215
-1.6267476 4.4695368 0.80866599
-1.6351116 4.4601607 0.82169962
-1.6405301 4.4525747 0.83014417
-1.6446836 4.4457669 0.83661652
-1.6481658 4.4393759 0.8420434
-1.651077 4.4333377 0.84658003
-1.653582 4.4275532 0.85048342
-1.6558979 4.4218922 0.8540926
-1.6578162 4.4164729 0.85708046
-1.6596571 4.411108 0.8599503
-1.661207 4.405921 0.86236572
-1.6626567 4.4007988 0.86462379
-1.6639873 4.395752 0.86669707
-1.6651347 4.3908148 0.86848617
-1.6662811 4.3858862 0.87027192
-1.6672328 4.381072 0.87175465
-1.668137 4.3762879 0.87316465
-1.6690319 4.3715162 0.87455916
-1.6697336 4.3668528 0.87565184
-1.6704347 4.362196 0.87674546
-1.6711135 4.357554 0.8778019
-1.6716379 4.3530002 0.87861919
-1.6721613 4.3484478 0.87943578
-1.6726718 4.3439069 0.88023067
-1.6730359 4.3394461 0.88079882
-1.6733999 4.3349872 0.8813653
-1.673764 4.3305302 0.88193297
-1.673985 4.326149 0.88227797
-1.6742013 4.3217731 0.88261461
-1.6744157 4.3173981 0.88294864
-1.6745183 4.3130822 0.8831079
-1.6745892 4.3087821 0.88321948
-1.6746613 4.3044829 0.88333082
-1.6746458 4.3002272 0.88330746
-1.6745744 4.296 0.8831954
-1.6745013 4.2917719 0.88308311
-1.6743639 4.2875762 0.88286877
-1.6741438 4.2834201 0.88252592
-1.6739241 4.279263 0.88218236
-1.6736497 4.2751303 0.88175488
-1.6732709 4.2710462 0.88116574
-1.6728928 4.2669601 0.88057566
-1.6724548 4.2628989 0.87989354
-1.6719007 4.2588911 0.87903047
-1.6713469 4.25488 0.8781662
-1.6706994 4.2509103 0.87715673
-1.6699431 4.246985 0.87597919
-1.6691855 4.2430573 0.87479925
-1.6682477 4.2392073 0.87333727
-1.6672485 4.2353792 0.87178087
-1.6661749 4.2315803 0.87010741
-1.6648731 4.2278762 0.86807919
-1.6635704 4.2241659 0.86604857
-1.6618797 4.2206192 0.86341333
-1.6601729 4.2170701 0.86075544
-1.6579193 4.2137504 0.85724306
-1.6554432 4.2105131 0.85338473
-1.6524098 4.2075033 0.84865665
-1.648432 4.2048802 0.84245872
-1.642988 4.202857 0.8339746
-1.6270323 4.467679 0.81687713
-1.6333226 4.4595518 0.82664752
-1.6380146 4.452405 0.83393526
-1.6417292 4.4458599 0.83970499
-1.6448096 4.4397078 0.84448767
-1.6475952 4.433744 0.84881592
-1.6499245 4.428062 0.85243225
-1.6520674 4.4225001 0.855762
-1.6539207 4.4171171 0.85863924
-1.6556566 4.4118109 0.86133575
-1.6571136 4.4066739 0.86359882
-1.6585675 4.401547 0.86585689
-1.6597404 4.3965859 0.86767912
-1.660893 4.391644 0.86946845
-1.6619558 4.3867579 0.87112021
-1.6628659 4.3819628 0.87253261
-1.6637745 4.3771729 0.87394381
-1.6645613 4.3724561 0.87516522
-1.665266 4.3677878 0.87626076
-1.6659693 4.3631248 0.87735319
-1.6665524 4.358531 0.87825918
-1.6670799 4.3539701 0.87907743
-1.6676056 4.349412 0.87989473
-1.6680279 4.344913 0.88055038
-1.6683941 4.340446 0.88111877
-1.6687604 4.3359809 0.8816874
-1.6690471 4.3315592 0.88213277
-1.6692625 4.3271751 0.8824687
-1.6694784 4.322793 0.88280416
-1.6696434 4.3184381 0.88306022
-1.6697156 4.3141322 0.88317156
-1.6697872 4.3098259 0.88328266
-1.6698333 4.3055329 0.88335538
-1.6697617 4.3013 0.88324285
-1.6696895 4.2970672 0.8831315
-1.669613 4.2928352 0.88301253
-1.6693921 4.2886739 0.88266921
-1.6691704 4.2845111 0.88232517
-1.6689495 4.2803483 0.88198185
-1.6685814 4.2762542 0.8814106
-1.6682003 4.2721629 0.88081932
-1.66782 4.2680712 0.88022852
-1.6672767 4.2640533 0.8793838
-1.66672 4.2600393 0.87851977
-1.6661524 4.2560272 0.87763739
-1.6653926 4.2521009 0.87645841
-1.6646328 4.2481699 0.87527752
-1.6637875 4.2442741 0.87396526
-1.6627837 4.2404461 0.87240624
-1.6617799 4.2366114 0.87084746
-1.6605206 4.2328873 0.86888981
-1.6592113 4.229177 0.86685801
-1.6576719 4.2255621 0.86446571
-1.6559594 4.2220154 0.86180687
-1.653918 4.2186022 0.8586359
-1.6516352 4.2152834 0.85509014
-1.6486832 4.2122412 0.85050583
-1.6451164 4.209446 0.84496641
-1.6403356 4.20715 0.83753967
-1.6326134 4.2060752 0.82554603
-1.6173919 4.4761496 0.80969262
-1.6255953 4.4668527 0.82239175
-1.6309408 4.4592967 0.83066535
-1.6350523 4.452498 0.83703184
-1.6385113 4.4461069 0.84238577
-1.6414487 4.4400396 0.84693265
-1.6439282 4.4342561 0.85077143
-1.6462624 4.4285698 0.85438538
-1.6481605 4.4231491 0.85732269
-1.6500192 4.4177618 0.86020088
-1.6515495 4.4125719 0.86256957
-1.6530125 4.4074287 0.86483383
-1.6543276 4.4023781 0.86686945
-1.655486 4.3974218 0.86866236
-1.6566427 4.3924742 0.87045288
-1.657578 4.3876557 0.87190056
-1.6584901 4.3828559 0.87331367
-1.6593719 4.378078 0.87467742
-1.6600788 4.3733997 0.87577343
-1.6607871 4.3687258 0.87686896
-1.6614515 4.364079 0.87789774
-1.6619803 4.359509 0.87871742
-1.6625097 4.3549418 0.87953615
-1.663004 4.3503971 0.88030219
-1.6633725 4.345921 0.88087106
-1.6637397 4.3414478 0.88144016
-1.6640935 4.3369842 0.88198781
-1.6643109 4.332593 0.88232422
-1.6645277 4.3282042 0.88266015
-1.6647453 4.3238149 0.8829968
-1.6648273 4.3194971 0.88312459
-1.6648998 4.3151851 0.88323593
-1.6649718 4.310873 0.88334751
-1.664935 4.3066158 0.88329053
-1.6648626 4.3023772 0.88317752
-1.6647894 4.2981372 0.88306546
-1.6646271 4.293941 0.88281393
-1.6644045 4.2897739 0.88246942
-1.6641819 4.2856059 0.8821249
-1.6638782 4.2814751 0.8816545
-1.6634965 4.2773809 0.88106394
-1.663114 4.273284 0.88047147
-1.662641 4.2692289 0.87973905
-1.6620817 4.2652111 0.87887311
-1.661522 4.2611914 0.87800789
-1.6608313 4.2572289 0.87693739
-1.6600671 4.2532959 0.87575579
-1.6593029 4.2493591 0.87457275
-1.6583095 4.245523 0.87303424
-1.6573014 4.2416883 0.87147427
-1.6561568 4.2379093 0.86970186
-1.6548431 4.2342 0.86766744
-1.6534548 4.230515 0.86551952
-1.6517363 4.2269702 0.86285853
-1.6499104 4.2234631 0.86003113
-1.6476182 4.2201481 0.85648394
-1.6449534 4.2169833 0.85235906
-1.6417981 4.214015 0.8474741
-1.6376284 4.2114654 0.84101963
-1.6312517 4.2098322 0.83114719
-1.6174948 4.4743948 0.81760859
-1.6236901 4.4663076 0.82716846
-1.6283419 4.4591708 0.83434463
-1.6320909 4.4525909 0.84012985
-1.6351409 4.4464417 0.84483528
-1.637908 4.4404759 0.84910488
-1.6402576 4.4347677 0.85273027
-1.6423794 4.4292049 0.856004
-1.644248 4.4238 0.85888648
-1.6459651 4.4184918 0.86153626
-1.6474357 4.4133329 0.86380529
-1.6488938 4.4081907 0.86605501
-1.6500592 4.4032221 0.86785412
-1.6512219 4.3982601 0.86964822
-1.6522713 4.3933687 0.87126637
-1.6531887 4.388557 0.87268233
-1.6541053 4.38375 0.87409616
-1.6548767 4.3790288 0.87528658
-1.6555882 4.3743448 0.8763833
-1.6562979 4.3696651 0.87748027
-1.6568656 4.3650661 0.87835622
-1.6573982 4.3604898 0.87917638
-1.6579283 4.3559179 0.87999582
-1.6583346 4.3514137 0.88062263
-1.6587045 4.3469329 0.88119268
-1.6590737 4.342453 0.8817625
-1.659344 4.338028 0.88217974
-1.659562 4.333631 0.88251543
-1.6597798 4.3292351 0.88285208
-1.6599247 4.3248782 0.88307571
-1.6599977 4.320559 0.88318777
-1.6600708 4.3162413 0.88330007
-1.6600945 4.3119469 0.88333702
-1.6600215 4.3077021 0.88322473
-1.6599486 4.3034563 0.88311267
-1.6598485 4.2992239 0.88295817
-1.6596252 4.2950521 0.88261294
-1.6594012 4.2908783 0.88226843
-1.6591632 4.2867112 0.88190031
-1.65878 4.2826118 0.88130856
-1.6583953 4.278512 0.8807168
-1.6579924 4.2744179 0.88009548
-1.6574311 4.2703972 0.87922907
-1.6568691 4.2663732 0.8783617
-1.6562576 4.2623692 0.87741804
-1.6554912 4.2584352 0.87623572
-1.6547232 4.2544961 0.87505078
-1.6538229 4.2506132 0.87366223
-1.6528113 4.2467771 0.87210059
-1.651783 4.2429419 0.87051463
-1.6504642 4.239233 0.86847854
-1.6491423 4.235517 0.86643982
-1.6475044 4.231936 0.86391163
-1.6457763 4.228384 0.86124468
-1.6435951 4.2250223 0.85787964
-1.6412172 4.2217331 0.85421205
-1.6381416 4.2187343 0.84946561
-1.6342956 4.2160501 0.84353089
-1.6290643 4.2139382 0.83546019
-1.6184535 4.214088 0.81908846
-1.607993 4.4827948 0.81072569
-1.6160426 4.4735727 0.82310534
-1.6213073 4.4660487 0.83120155
-1.6253701 4.4592648 0.83745003
-1.6288035 4.4528751 0.84272885
-1.6317682 4.4467778 0.84728813
-1.6342247 4.4409938 0.85106611
-1.6365768 4.4352837 0.85468197
-1.6384549 4.4298611 0.85757113
-1.64033 4.4244499 0.86045504
-1.641838 4.41926 0.8627739
-1.6433142 4.4140968 0.86504412
-1.6446133 4.4090419 0.86704135
-1.6457829 4.404067 0.86883998
-1.6469468 4.3991017 0.87062979
-1.6478695 4.394278 0.87204885
-1.6487906 4.3894591 0.87346673
-1.6496574 4.3846769 0.8747983
-1.6503719 4.379982 0.87589788
-1.6510854 4.3752918 0.87699509
-1.6517353 4.3706408 0.87799382
-1.6522686 4.366056 0.87881446
-1.6528034 4.361474 0.87963676
-1.6532824 4.3569241 0.88037395
-1.6536534 4.3524342 0.88094497
-1.6540247 4.3479462 0.88151503
-1.6543617 4.3434792 0.88203287
-1.6545799 4.3390751 0.88237
-1.6547997 4.334671 0.88270712
-1.655009 4.3302751 0.88302898
-1.655081 4.3259492 0.88314033
-1.655154 4.3216238 0.88325238
-1.6552271 4.3172989 0.88336468
-1.6551679 4.3130422 0.88327336
-1.6550941 4.3087902 0.88316059
-1.6550205 4.3045392 0.88304782
-1.6548316 4.300344 0.88275743
-1.6546085 4.296165 0.8824122
-1.6543837 4.291986 0.88206697
-1.6540501 4.287858 0.8815546
-1.6536645 4.2837529 0.88096094
-1.6532784 4.2796459 0.88036799
-1.6527689 4.2755961 0.87958431
-1.6522048 4.2715693 0.87871647
-1.6516395 4.267539 0.87784672
-1.6509032 4.263586 0.8767159
-1.6501329 4.259645 0.87553048
-1.6493268 4.2557154 0.87429142
-1.6483107 4.2518783 0.87272835
-1.6472926 4.2480359 0.87116289
-1.6460755 4.244278 0.86929059
-1.6447494 4.240562 0.86725092
-1.6432633 4.2369113 0.86496615
-1.6415286 4.2333622 0.86229801
-1.6395627 4.2299042 0.85927653
-1.6372483 4.2265892 0.85571551
-1.6343894 4.2234993 0.85131931
-1.6309583 4.2206402 0.84604239
-1.6263999 4.2182474 0.83903217
-1.6191156 4.2169952 0.82783151
-1.6078881 4.4811578 0.81831217
-1.6140155 4.4730959 0.82770538
-1.6186255 4.4659681 0.83477092
-1.6224029 4.4593568 0.84056163
-1.6254196 4.4532137 0.84518552
-1.6281663 4.4472461 0.8493948
-1.6305372 4.4415121 0.85302901
-1.6326406 4.435946 0.85625219
-1.634526 4.4305167 0.85914207
-1.6362212 4.4252081 0.86174226
-1.637705 4.4200287 0.86401582
-1.6391475 4.4148817 0.86622763
-1.6403232 4.409894 0.86802864
-1.6414971 4.4049139 0.86982822
-1.6425315 4.4000177 0.87141299
-1.6434577 4.3951879 0.87283373
-1.6443824 4.3903637 0.87425041
-1.645139 4.3856378 0.87541008
-1.6458564 4.3809381 0.87650919
-1.6465735 4.3762422 0.87760854
-1.6471245 4.3716393 0.87845469
-1.6476605 4.3670478 0.87927651
-1.6481974 4.3624601 0.88009787
-1.6485868 4.3579521 0.88069606
-1.6489596 4.353456 0.88126755
-1.6493328 4.3489628 0.88183904
-1.6495838 4.3445339 0.88222456
-1.6498044 4.3401241 0.88256216
-1.6500247 4.3357148 0.8829
-1.6501508 4.3313551 0.88309193
-1.6502244 4.327023 0.88320446
-1.6502974 4.3226919 0.88331676
-1.6502992 4.318397 0.88332081
-1.6502261 4.3141398 0.88320732
-1.6501523 4.3098831 0.88309455
-1.6500262 4.3056502 0.88290262
-1.6498008 4.3014669 0.88255668
-1.6495762 4.2972822 0.88221169
-1.6493082 4.293117 0.88180137
-1.6489213 4.2890081 0.8812077
-1.6485326 4.2848969 0.88061285
-1.6480949 4.280808 0.87994146
-1.6475276 4.2767782 0.87907243
-1.6469603 4.2727451 0.8782022
-1.6463047 4.2687502 0.87719774
-1.6455305 4.2648063 0.87601042
-1.6447554 4.260859 0.87482333
-1.6437988 4.2569909 0.87335753
-1.6427771 4.2531481 0.87179017
-1.6416779 4.2493329 0.8701055
-1.6403458 4.2456193 0.86806345
-1.6390114 4.2418971 0.8660183
-1.637272 4.238349 0.8633523
-1.6355251 4.2347941 0.86067533
-1.6332011 4.2314844 0.85711312
-1.6306322 4.2282691 0.85317564
-1.6275244 4.2252731 0.84841251
-1.6233921 4.2227039 0.84207726
-1.6177032 4.2207804 0.83335876
-1.5985579 4.4894657 0.81177974
-1.6064398 4.4803276 0.82382107
-1.6116295 4.4728336 0.83174849
-1.615648 4.4660606 0.83788824
-1.6190457 4.4596777 0.84308004
-1.6220338 4.4535527 0.84764457
-1.6244681 4.4477677 0.85136175
-1.6268005 4.4420557 0.85492611
-1.6286974 4.4366088 0.85782433
-1.6305842 4.4311781 0.86070633
-1.6320755 4.4259839 0.86298513
-1.6335647 4.4207997 0.86525941
-1.6348438 4.4157429 0.86721539
-1.6360252 4.410749 0.86901855
-1.6371747 4.4057779 0.8707757
-1.6381063 4.4009361 0.8721981
-1.6390362 4.3961 0.87361932
-1.6398875 4.3913131 0.87491989
-1.6406094 4.3866019 0.87602282
-1.6413302 4.3818951 0.87712383
-1.6419647 4.3772402 0.87809348
-1.6425037 4.3726392 0.8789165
-1.6430418 4.368042 0.87973881
-1.6435056 4.3634882 0.88044643
-1.6438793 4.358984 0.88101864
-1.6442542 4.3544822 0.88159037
-1.6445732 4.3500109 0.88207865
-1.6447952 4.345593 0.88241768
-1.6450164 4.341176 0.88275456
-1.6452063 4.3367767 0.88304448
-1.6452793 4.332438 0.88315678
-1.6453531 4.3281002 0.88326955
-1.6454177 4.3237672 0.88336825
-1.6453433 4.3195052 0.88325477
-1.6452696 4.3152409 0.88314199
-1.6451957 4.3109779 0.88302922
-1.6449804 4.3067832 0.88270092
-1.6447549 4.3025942 0.88235521
-1.6445279 4.2984028 0.88200951
-1.6441635 4.2942772 0.8814528
-1.6437743 4.2901621 0.88085723
-1.6433845 4.2860451 0.88026261
-1.6428386 4.2820001 0.87942863
-1.6422684 4.2779641 0.87855721
-1.6416939 4.2739263 0.87767982
-1.6409173 4.2699809 0.87649298
-1.6401381 4.2660313 0.87530375
-1.6392777 4.262116 0.87398815
-1.6382505 4.2582712 0.87241983
-1.6372229 4.2544222 0.87084866
-1.635932 4.2506862 0.86887765
-1.6345923 4.2469649 0.86683083
-1.6330085 4.2433462 0.8644104
-1.6312559 4.2397933 0.86173224
-1.6291478 4.2363882 0.85851312
-1.6268086 4.2330723 0.85493946
-1.6237533 4.2300582 0.85027146
-1.6200395 4.2273121 0.84459782
-1.6150286 4.2251053 0.83694315
-1.606383 4.224431 0.82373452
-1.5864022 4.4994969 0.80100799
-1.5982363 4.4879518 0.81902885
-1.6042893 4.479919 0.82824492
-1.6088589 4.4728007 0.83520293
-1.6126447 4.4661698 0.84096813
-1.6156523 4.4600177 0.84554672
-1.618372 4.454052 0.84968901
-1.6207638 4.4482918 0.85333037
-1.6228449 4.4427247 0.85650086
-1.6247488 4.4372721 0.85939837
-1.6264249 4.4319611 0.86195111
-1.6279221 4.4267607 0.86423087
-1.6293478 4.4216108 0.86640215
-1.6305342 4.416604 0.86820841
-1.6317184 4.4116039 0.87001157
-1.6327355 4.4067049 0.87156057
-1.6336714 4.4018569 0.87298441
-1.6346051 4.3970151 0.87440753
-1.6353452 4.3922849 0.87553382
-1.6360692 4.387568 0.87663722
-1.6367873 4.3828578 0.87772918
-1.6373293 4.3782482 0.87855482
-1.6378701 4.373642 0.87937808
-1.6384071 4.36904 0.88019681
-1.6387837 4.3645282 0.88076997
-1.6391597 4.3600168 0.88134265
-1.6395364 4.3555088 0.88191605
-1.6397698 4.351078 0.88227105
-1.6399915 4.3466539 0.88260865
-1.6402137 4.3422308 0.88294768
-1.6403201 4.3378692 0.88310862
-1.6403936 4.3335252 0.88322163
-1.6404674 4.3291802 0.88333416
-1.6404476 4.3248839 0.88330317
-1.6403732 4.3206148 0.88318992
-1.6402986 4.3163462 0.88307643
-1.6401472 4.3121152 0.88284636
-1.6399198 4.30792 0.88249993
-1.6396921 4.3037243 0.88215351
-1.6393938 4.299561 0.88169837
-1.6390026 4.2954421 0.88110375
-1.6386116 4.2913208 0.88050699
-1.6381376 4.2872372 0.8797853
-1.6375651 4.2831969 0.8789134
-1.6369926 4.2791543 0.87804151
-1.636291 4.2751679 0.87697482
-1.6355104 4.2712159 0.87578487
-1.6347275 4.2672601 0.87459397
-1.6337147 4.2634072 0.87305093
-1.6326818 4.2595572 0.87147808
-1.6315093 4.255764 0.86969399
-1.6301639 4.2520442 0.86764455
-1.6287358 4.248353 0.86546993
-1.6269758 4.244803 0.86278963
-1.6250885 4.2412992 0.85991597
-1.6227405 4.2379889 0.8563416
-1.6199771 4.234848 0.85213375
-1.6166847 4.2319221 0.84712076
-1.6123562 4.2294292 0.84052801
-1.6055298 4.2279873 0.83013439
-1.5891023 4.4961548 0.81287742
-1.596797 4.487112 0.8245542
-1.6019001 4.4796548 0.83229971
-1.6058729 4.4728947 0.83832884
-1.609241 4.4665136 0.84344101
-1.6122539 4.460361 0.84801459
-1.6146586 4.4545789 0.85166407
-1.6169708 4.4488659 0.85517216
-1.6188844 4.4433947 0.85807657
-1.620753 4.4379606 0.86091375
-1.6222591 4.4327459 0.8631978
-1.6237618 4.4275398 0.86547995
-1.6250241 4.4224801 0.8673954
-1.6262147 4.4174662 0.86920261
-1.6273491 4.4124918 0.87092328
-1.6282878 4.4076328 0.87234926
-1.6292268 4.4027791 0.87377286
-1.630064 4.3979869 0.87504315
-1.6307919 4.393259 0.8761487
-1.6315193 4.388536 0.87725258
-1.6321374 4.3838758 0.87819147
-1.6326815 4.3792601 0.87901783
-1.6332257 4.3746471 0.87984228
-1.633672 4.3700891 0.88051963
-1.63405 4.3655701 0.88109398
-1.634428 4.3610539 0.88166714
-1.6347287 4.3565798 0.88212442
-1.6349528 4.3521481 0.88246393
-1.6351762 4.3477182 0.88280272
-1.6353457 4.343317 0.88305998
-1.6354201 4.3389649 0.88317323
-1.635494 4.3346138 0.883286
-1.6355373 4.3302803 0.88335133
-1.6354626 4.326005 0.8832376
-1.635389 4.3217292 0.88312483
-1.6352999 4.3174601 0.88299131
-1.6350715 4.313261 0.88264441
-1.6348432 4.3090601 0.88229752
-1.6346114 4.3048592 0.88194656
-1.6342185 4.300735 0.88134909
-1.6338251 4.2966099 0.88075256
-1.6334236 4.2924862 0.88014293
-1.6328485 4.288444 0.87927008
-1.6322731 4.2843981 0.87839699
-1.6316545 4.2803693 0.87745881
-1.6308693 4.2764149 0.87626743
-1.6300843 4.2724562 0.87507486
-1.6291668 4.2685552 0.87368226
-1.62813 4.2647033 0.87210989
-1.6270781 4.2608533 0.87051177
-1.6257267 4.257133 0.86846161
-1.624373 4.253407 0.86640811
-1.6226878 4.2498221 0.86385036
-1.620918 4.2462649 0.86116314
-1.6186647 4.2429132 0.85774517
-1.6161964 4.2396441 0.85399771
-1.6130461 4.236661 0.84921741
-1.6090436 4.2340312 0.84314227
-1.6035737 4.2320142 0.83483982
-1.5893213 4.2337503 0.81320882
-1.5775015 4.5058637 0.80305719
-1.5885539 4.494771 0.81977582
-1.5945191 4.4867749 0.82879925
-1.5990392 4.4796696 0.83563757
-1.602798 4.4730411 0.84132433
-1.6058347 4.4668579 0.84591651
-1.6085296 4.4608927 0.84999347
-1.6109419 4.4551058 0.85364318
-1.6129993 4.4495401 0.85675454
-1.6149179 4.444066 0.85965657
-1.6165736 4.4387517 0.86216211
-1.6180854 4.4335308 0.86444759
-1.619494 4.4283767 0.86657858
-1.6206918 4.4233499 0.86839032
-1.6218867 4.4183311 0.87019873
-1.6228868 4.4134278 0.87171268
-1.6238308 4.4085617 0.8731389
-1.6247649 4.403707 0.87455368
-1.6254963 4.3989687 0.87565923
-1.6262276 4.3942351 0.87676525
-1.6269304 4.3895211 0.8778286
-1.6274767 4.3848958 0.8786552
-1.6280227 4.3802738 0.87948132
-1.6285443 4.375668 0.88026905
-1.6289239 4.371141 0.88084483
-1.6293045 4.3666162 0.8814199
-1.6296741 4.3620977 0.88197803
-1.6298989 4.3576589 0.88231826
-1.6301231 4.3532209 0.88265777
-1.6303475 4.3487849 0.88299727
-1.6304318 4.3444209 0.88312554
-1.630507 4.340064 0.88323832
-1.6305813 4.3357072 0.88335037
-1.6305387 4.3314099 0.88328576
-1.6304634 4.3271294 0.88317323
-1.6303883 4.3228474 0.88305902
-1.6302098 4.3186169 0.88278937
-1.6299802 4.3144112 0.88244247
-1.6297507 4.3102031 0.88209486
-1.6294214 4.3060431 0.88159633
-1.6290263 4.3019142 0.88099861
-1.6286317 4.2977819 0.88040113
-1.6281196 4.293704 0.87962675
-1.627542 4.2896552 0.87875319
-1.6269639 4.2856021 0.87787914
-1.6262169 4.2816262 0.87674975
-1.6254282 4.2776651 0.87555671
-1.6246076 4.273715 0.87431479
-1.6235671 4.2698631 0.87274051
-1.6225249 4.266005 0.87116385
-1.621278 4.2622352 0.86927795
-1.61992 4.2585082 0.8672235
-1.6183912 4.2548513 0.86491179
-1.6166142 4.251297 0.86222243
-1.6145837 4.2478461 0.85915184
-1.6122122 4.244535 0.85556412
-1.6092508 4.2414713 0.85108447
-1.6056725 4.2386613 0.84567237
-1.6008861 4.2363563 0.8384316
-1.5931709 4.2352924 0.82676077
-1.5795975 4.5028768 0.81397581
-1.5871019 4.4939327 0.82528949
-1.5921276 4.486506 0.83286786
-1.5960441 4.4797659 0.83877277
-1.5993817 4.4733887 0.84380436
-1.6023734 4.4672337 0.84831476
-1.6048005 4.4614248 0.8519752
-1.6070914 4.4557099 0.8554287
-1.6090212 4.4502158 0.85833907
-1.6108689 4.4447808 0.86112309
-1.6123866 4.4395447 0.86341214
-1.6139035 4.4343181 0.86569929
-1.6151478 4.429255 0.86757612
-1.6163499 4.424222 0.86938763
-1.6174685 4.4192429 0.87107444
-1.6184158 4.4143658 0.872504
-1.6193631 4.4094939 0.87393165
-1.6201854 4.4046979 0.87516999
-1.6209196 4.3999538 0.87627697
-1.6216531 4.3952141 0.87738323
-1.6222551 4.3905501 0.87829161
-1.6228044 4.3859191 0.8791194
-1.6233531 4.38129 0.87994671
-1.6237825 4.376729 0.88059425
-1.6241641 4.3721952 0.88117027
-1.6245458 4.3676639 0.88174534
-1.6248281 4.3631868 0.88217139
-1.6250538 4.3587408 0.88251209
-1.6252793 4.3542972 0.8828516
-1.6254292 4.349894 0.88307762
-1.6255043 4.34553 0.88319039
-1.6255794 4.341166 0.88330317
-1.6255991 4.3368301 0.88333392
-1.6255245 4.3325429 0.88322067
-1.6254493 4.3282561 0.88310647
-1.625335 4.323987 0.88293481
-1.6251044 4.3197761 0.88258719
-1.6248729 4.3155642 0.8822391
-1.6246114 4.3113661 0.88184309
-1.6242139 4.3072319 0.8812449
-1.6238173 4.3030963 0.88064718
-1.623379 4.2989779 0.87998581
-1.6227987 4.2949252 0.87911081
-1.6222179 4.2908702 0.87823462
-1.6215531 4.28685 0.87723303
-1.620761 4.282887 0.87603951
-1.6199677 4.2789211 0.87484264
-1.6189923 4.275034 0.87337279
-1.6179457 4.2711749 0.87179494
-1.6168191 4.2673473 0.87009621
-1.615455 4.2636223 0.86803913
-1.6140847 4.259891 0.865973
-1.6123013 4.2563391 0.8632834
-1.6104927 4.2527881 0.86055708
-1.6081133 4.2494822 0.85696912
-1.6054459 4.2462902 0.85294771
-1.6022621 4.24331 0.84814835
-1.5979636 4.2407999 0.84166718
-1.5918279 4.2390652 0.83241558
-1.568609 4.5122299 0.80518079
-1.5788214 4.5016251 0.82052779
-1.5847065 4.4936609 0.82937312
-1.5891778 4.4865699 0.83609223
-1.5929012 4.479948 0.84168625
-1.5959618 4.4737368 0.84628582
-1.5986326 4.4677711 0.85029936
-1.6010673 4.4619579 0.85395861
-1.6031013 4.4563918 0.85701489
-1.6050372 4.4508929 0.85992408
-1.6066693 4.44558 0.86237717
-1.6081936 4.4403381 0.86466765
-1.6095846 4.4351807 0.86675763
-1.6107926 4.4301338 0.86857438
-1.6119995 4.425096 0.87038732
-1.6129835 4.4201889 0.87186575
-1.6139355 4.4153061 0.87329626
-1.6148549 4.4104462 0.87467885
-1.6155927 4.4056911 0.8757875
-1.61633 4.4009409 0.87689543
-1.6170174 4.3962221 0.87792802
-1.6175683 4.3915811 0.878757
-1.6181192 4.3869438 0.87958479
-1.6186241 4.3823338 0.88034248
-1.6190083 4.3777919 0.88091946
-1.6193914 4.3732519 0.88149571
-1.6197437 4.368731 0.882025
-1.61997 4.3642778 0.88236475
-1.6201968 4.359827 0.8827064
-1.6204116 4.355382 0.88302898
-1.6204866 4.3510122 0.88314152
-1.6205626 4.3466411 0.883255
-1.6206372 4.3422709 0.88336849
-1.620571 4.3379731 0.88326859
-1.6204947 4.3336802 0.88315392
-1.6204188 4.3293862 0.88304043
-1.6202135 4.3251572 0.88273263
-1.6199826 4.3209391 0.88238454
-1.6197501 4.316721 0.88203573
-1.6193897 4.3125639 0.88149309
-1.6189909 4.308424 0.88089323
-1.6185924 4.3042812 0.88029528
-1.6180431 4.300209 0.87946868
-1.6174594 4.2961502 0.87859249
-1.6168752 4.292089 0.87771463
-1.6160816 4.2881231 0.87652278
-1.6152847 4.2841539 0.87532568
-1.6144069 4.2802181 0.87400532
-1.6133561 4.2763581 0.87242651
-1.6123043 4.2724934 0.87084532
-1.610981 4.2687464 0.86885786
-1.6096089 4.2650142 0.8667953
-1.6079786 4.2613921 0.86434507
-1.6061836 4.257834 0.86164737
-1.6040058 4.2544379 0.8583746
-1.6016104 4.2511272 0.85477471
-1.5984427 4.2481432 0.85001516
-1.5945729 4.245451 0.84420013
-1.5893173 4.243341 0.83630228
-1.5794089 4.2432222 0.82141113
-1.5700614 4.509624 0.81510258
-1.5772398 4.5008588 0.8258543
-1.582274 4.493412 0.83339405
-1.5861766 4.4866648 0.83923936
-1.5894728 4.480298 0.84417725
-1.592437 4.4741449 0.84861612
-1.5948869 4.4683089 0.85228682
-1.5971566 4.4625921 0.85568595
-1.5991049 4.4570742 0.85860395
-1.6009305 4.4516377 0.86133957
-1.602463 4.4463801 0.86363459
-1.6039928 4.441133 0.8659246
-1.6052166 4.4360681 0.86775827
-1.6064286 4.431016 0.86957407
-1.6075317 4.426033 0.87122679
-1.6084882 4.4211369 0.87265992
-1.6094446 4.4162478 0.87409163
-1.6102494 4.411447 0.87529683
-1.610991 4.4066858 0.87640762
-1.6117309 4.4019299 0.87751675
-1.6123166 4.3972621 0.87839317
-1.6128705 4.3926148 0.87922335
-1.6134243 4.3879709 0.88005233
-1.6138358 4.3834062 0.88066912
-1.6142213 4.3788581 0.88124609
-1.6146063 4.3743119 0.88182354
-1.6148708 4.369832 0.88221908
-1.615098 4.3653731 0.88255978
-1.6153258 4.3609152 0.88290119
-1.6154548 4.3565092 0.88309431
-1.6155303 4.3521318 0.88320708
-1.615606 4.347755 0.88332033
-1.6156027 4.3434191 0.88331628
-1.6155268 4.3391199 0.8832016
-1.6154501 4.3348198 0.88308764
-1.6153104 4.3305521 0.88287783
-1.6150782 4.3263302 0.88252902
-1.6148447 4.3221064 0.88218021
-1.6145514 4.3179111 0.88174105
-1.614151 4.313766 0.88114142
-1.6137501 4.3096199 0.88054132
-1.6132748 4.3055072 0.87982893
-1.6126883 4.301445 0.8789506
-1.6121018 4.29738 0.87807178
-1.6113918 4.2933712 0.87700748
-1.6105914 4.2893991 0.87580991
-1.6097906 4.2854242 0.87460923
-1.6087567 4.2815533 0.87306023
-1.6076988 4.2776871 0.87147689
-1.6064973 4.2738819 0.86967611
-1.6051191 4.2701511 0.8676126
-1.6036479 4.2664542 0.86540961
-1.6018461 4.2628994 0.86271095
-1.599892 4.2594023 0.85978293
-1.5974882 4.2560964 0.85618234
-1.5946178 4.2529831 0.85188365
-1.5911797 4.250104 0.84673381
-1.5866184 4.2476993 0.83990264
-1.5793588 4.2464461 0.82902837
-1.5597138 4.5186019 0.80736399
-1.5690458 4.5085096 0.82129574
-1.5748419 4.5005836 0.8299489
-1.5792643 4.4935079 0.83655
