# .PCD v0.7 - Point Cloud Data file format
VERSION 0.7
FIELDS x y z
SIZE 4 4 4
TYPE F F F
COUNT 1 1 1
WIDTH 1495
HEIGHT 1
VIEWPOINT 0 0 0 1 0 0 0
POINTS 1495
DATA ascii
-0.57944232 2.6208341 0.90011269
-0.66573811 2.8543942 0.87310576
-0.68645656 2.8361633 0.89536858
-0.71548826 2.8134964 0.92537785
-0.71282774 2.8083375 0.92560494
-0.71016788 2.8031778 0.92583156
-0.70750922 2.7980213 0.92605937
-0.70484769 2.7928662 0.92628288
-0.70213044 2.7877424 0.92645538
-0.69941527 2.7826192 0.92662764
-0.6967001 2.7774966 0.92680013
-0.69398469 2.7723751 0.92697191
-0.64472628 2.7717416 0.89213592
-0.64492476 2.7650232 0.89504117
-0.64512402 2.7583215 0.89793903
-0.64532179 2.7516384 0.90082926
-0.64311165 2.7461901 0.90149611
-0.64027303 2.7410614 0.90158391
-0.63743532 2.7359331 0.90167105
-0.63459861 2.7308054 0.90175956
-0.63167256 2.7257214 0.9017663
-0.62872285 2.72065 0.90175039
-0.62577313 2.7155783 0.90173495
-0.62282318 2.7105064 0.90171897
-0.61979944 2.7054698 0.90163749
-0.61675888 2.7004414 0.90153879
-0.61371791 2.6954131 0.9014411
-0.60969049 2.6908536 0.90044665
-0.60439903 2.6868887 0.89830846
-0.59894818 2.6829877 0.89602882
-0.59348381 2.6790788 0.89374369
-0.58801055 2.6751602 0.89145505
-0.69796276 2.8298883 0.91371804
-0.70319396 2.8203428 0.92134643
-0.70100766 2.8148994 0.92202592
-0.69842029 2.8096774 0.92232913
-0.69575328 2.8045015 0.92255718
-0.69306791 2.799336 0.92276806
-0.6903432 2.7941933 0.92294168
-0.68761826 2.7890508 0.92311537
-0.68489361 2.7839103 0.92328811
-0.68216985 2.7787693 0.92346203
-0.67388707 2.8164568 0.9097178
-0.67499548 2.8091965 0.913468
-0.67263067 2.8038206 0.91399086
-0.6702652 2.7984471 0.91451341
-0.66790295 2.7930753 0.91503644
-1.2298653 3.0373509 0.85154676
-1.2264513 3.0372701 0.85491681
-1.2071851 3.0270209 0.8316505
-1.2320179 3.044513 0.86910009
-1.2230728 3.0372 0.85833359
-1.2087661 3.0283442 0.84111238
-1.2343489 3.0508261 0.87933254
-1.2273867 3.044096 0.87098026
-1.2195474 3.0370879 0.86157346
-1.2065399 3.0286 0.84596825
-1.2340419 3.0563989 0.88636923
-1.2291349 3.0502539 0.88050127
-1.222749 3.043679 0.87286377
-1.2150691 3.036715 0.86367941
-1.2034719 3.0286222 0.84980989
-1.1826533 3.01788 0.82491207
-1.2331167 3.0617919 0.89264607
-1.2288361 3.0558338 0.88754392
-1.2239094 3.04968 0.88167119
-1.2182449 3.0433002 0.87491965
-1.2105851 3.0363421 0.8657887
-1.2004647 3.0286601 0.85372353
-1.1837844 3.019088 0.83384109
-1.2214106 3.1996608 0.88609743
-1.2305257 3.0667338 0.89692736
-1.2275298 3.061131 0.89336777
-1.2236183 3.0552669 0.88872004
-1.2187043 3.049114 0.88288164
-1.2137789 3.042932 0.87702918
-1.2060952 3.0359669 0.86790061
-1.1974576 3.0286989 0.85763717
-1.1849113 3.020292 0.84273028
-1.2139845 3.1988339 0.88468313
-1.2249365 3.0660801 0.89765477
-1.2219274 3.060468 0.89409065
-1.2183887 3.0546999 0.88989949
-1.2135885 3.048573 0.88421488
-1.2087677 3.042417 0.87850547
-1.2016599 3.035609 0.87008715
-1.1942686 3.028687 0.86133337
-1.1822057 3.020421 0.84704685
-1.1477091 3.0057671 0.80619311
-1.2004633 3.2017148 0.87610745
-1.2065229 3.1980038 0.8832612
-1.2223434 3.0710258 0.9019382
-1.2193323 3.065424 0.8983829
-1.2163174 3.0598059 0.8948245
-1.2132778 3.0541649 0.89123464
-1.2084619 3.048032 0.88555002
-1.2036223 3.041868 0.87983799
-1.1973286 3.0352809 0.87240839
-1.1899164 3.028353 0.86365747
-1.1793587 3.02051 0.85119414
-1.1814082 3.2036269 0.86110139
-1.191682 3.2006509 0.87318897
-1.1990025 3.1971638 0.88180304
-1.2046198 3.1933839 0.88841319
-1.2166578 3.0703559 0.90257692
-1.2137365 3.0647719 0.89914012
-1.2107747 3.0591631 0.89565492
-1.2078028 3.0535359 0.89215851
-1.2033243 3.0474889 0.88688898
-1.1985356 3.0413361 0.88125467
-1.1929935 3.0349531 0.87473249
-1.1855588 3.028019 0.86598516
-1.1765122 3.0205979 0.85533929
-1.1638141 3.0121059 0.84039855
-1.1686583 3.2018468 0.85361004
-1.182754 3.1995628 0.87014151
-1.1912484 3.1962829 0.8801043
-1.197009 3.1925168 0.88685942
-1.212666 3.07495 0.90522456
-1.210824 3.0696499 0.90306377
-1.2081916 3.064136 0.89997673
-1.2052166 3.0585179 0.89648676
-1.2022338 3.0528831 0.89298797
-1.1982079 3.0469539 0.88826656
-1.1934977 3.0408189 0.8827424
-1.1886529 3.0346241 0.8770597
-1.1813303 3.0277209 0.86847162
-1.1736674 3.0206871 0.85948443
-1.1622372 3.012557 0.84607887
-1.1422839 3.001956 0.82267737
-1.154577 3.1998267 0.84463525
-1.1737239 3.1984589 0.86701822
-1.1834564 3.1953969 0.87839603
-1.1892536 3.1916249 0.88517284
-1.2068491 3.0742559 0.90574265
-1.2050036 3.0689499 0.90358591
-1.2026325 3.063498 0.90081429
-1.1996453 3.0578721 0.89732218
-1.1966655 3.052233 0.89383864
-1.1931763 3.046443 0.8897593
-1.1884493 3.0403011 0.88423324
-1.1836988 3.0341291 0.87867928
-1.177123 3.027431 0.87099314
-1.1699523 3.020534 0.86260962
-1.1595342 3.012691 0.85043073
-1.1443431 3.0034471 0.83267236
-1.1641765 3.1972618 0.86333704
-1.175095 3.1944058 0.87605977
-1.1814616 3.1907289 0.88347912
-1.1872615 3.1869729 0.89023709
-1.2028705 3.078866 0.90842605
-1.2010208 3.0735621 0.90626955
-1.1991675 3.068248 0.90410995
-1.1970594 3.0628591 0.90165448
-1.1940906 3.0572331 0.89819479
-1.1911545 3.0516 0.89477277
-1.1881344 3.0459311 0.89125466
-1.1833909 3.039782 0.88572717
-1.1787202 3.0336289 0.88028479
-1.1729126 3.0271401 0.87351727
-1.1657461 3.0202451 0.86516571
-1.1568332 3.012826 0.85478115
-1.1452355 3.0046041 0.84126663
-1.1528964 3.1957448 0.85769153
-1.1655742 3.1931989 0.87241673
-1.173521 3.1898069 0.88164735
-1.1794689 3.1860659 0.88855457
-1.1985526 3.083396 0.91072035
-1.1970332 3.0781779 0.90895581
-1.1951755 3.072866 0.90679789
-1.1933143 3.067544 0.90463543
-1.1914759 3.062218 0.90250158
-1.1885778 3.0566061 0.89913511
-1.1856291 3.050966 0.89571071
-1.1826715 3.0453091 0.89227605
-1.1783792 3.0392771 0.88728905
-1.1737571 3.0331349 0.88192129
-1.1686974 3.026849 0.8760438
-1.1616616 3.0199912 0.86787271
-1.1541328 3.01296 0.85912848
-1.1433827 3.0049829 0.84664226
-1.1268744 2.995316 0.82746816
-1.1367855 3.1933298 0.8465147
-1.1559913 3.1919827 0.8687501
-1.165408 3.1888549 0.87965155
-1.1714256 3.1851139 0.88661838
-1.1925005 3.0826631 0.91101623
-1.1911799 3.0774879 0.90948772
-1.1893309 3.0721722 0.90734768
-1.1874952 3.0668511 0.90522122
-1.1856551 3.0615191 0.90309238
-1.1830505 3.0559781 0.90007639
-1.1800911 3.0503302 0.89664936
-1.1771468 3.0446711 0.89324141
-1.1734233 3.038789 0.8889308
-1.1687863 3.03264 0.88356209
-1.1641275 3.0264611 0.87816834
-1.1575729 3.0197361 0.87058139
-1.1506375 3.0128722 0.86255193
-1.1408095 3.0051591 0.85117459
-1.1276805 2.9964602 0.83597422
-1.1460166 3.1906979 0.86467886
-1.1572529 3.1878979 0.87764502
-1.1633106 3.1841497 0.88463545
-1.1692967 3.1804178 0.89154196
-1.1874657 3.087033 0.91250944
-1.1864377 3.0819302 0.91132307
-1.1853505 3.076807 0.91006732
-1.1835102 3.0714869 0.90794349
-1.181666 3.0661571 0.90581656
-1.1798184 3.060817 0.90368414
-1.1775107 3.0553479 0.90102196
-1.1745752 3.0497019 0.89763308
-1.1716675 3.0440481 0.89427805
-1.1684589 3.0383 0.89057541
-1.1638055 3.0321441 0.88520598
-1.1592468 3.02599 0.8799448
-1.153481 3.0194812 0.87329221
-1.146579 3.0126271 0.86532736
-1.1382409 3.0053351 0.85570574
-1.1279449 2.997447 0.84382486
-1.1106601 2.9875081 0.823879
-1.1346724 3.189158 0.85908294
-1.1474674 3.1866319 0.87380075
-1.1551554 3.1831818 0.88264322
-1.1612165 3.1794498 0.88961387
-1.1814096 3.0863099 0.91283965
-1.1803823 3.0812011 0.911659
-1.1793545 3.0760851 0.91047692
-1.1776725 3.0707989 0.90854216
-1.1758195 3.0654612 0.90641165
-1.1739647 3.060113 0.90427685
-1.1720045 3.054729 0.90202236
-1.1690938 3.0490851 0.89867544
-1.166175 3.0434241 0.89531803
-1.1632469 3.037746 0.89194965
-1.1588889 3.031667 0.88693666
-1.1543587 3.0255191 0.88172674
-1.1493851 3.0192261 0.8760066
-1.1426063 3.0124071 0.86820889
-1.1356716 3.0055101 0.86023355
-1.1254895 2.9976602 0.84852147
-1.1116419 2.9887133 0.83259392
-1.1161189 3.186265 0.84528327
-1.137194 3.1852779 0.86944628
-1.1467133 3.1821609 0.88035917
-1.1529677 3.178453 0.8875289
-1.1763694 3.090699 0.91435957
-1.1753399 3.085587 0.91317844
-1.1743078 3.0804691 0.91199517
-1.173275 3.075345 0.91081166
-1.1718187 3.0701101 0.90914154
-1.1699736 3.0647681 0.90702677
-1.1681454 3.0594211 0.90493035
-1.1663129 3.054064 0.90282989
-1.1636003 3.0484672 0.89971948
-1.1606696 3.042798 0.89635968
-1.1577612 3.0371211 0.8930254
-1.1540084 3.0312011 0.88872194
-1.1494633 3.0250471 0.88351154
-1.1449096 3.018867 0.87829113
-1.1386296 3.012187 0.87109208
-1.1319258 3.0053561 0.86340594
-1.1230352 2.9978743 0.85321355
-1.1123698 2.9898422 0.84098625
-1.0931754 2.9793053 0.81897998
-1.1267135 3.183888 0.8649075
-1.1382041 3.1811309 0.87803864
-1.1445022 3.1774158 0.88523459
-1.170287 3.089982 0.91470075
-1.1692522 3.084861 0.91351795
-1.168216 3.079735 0.91233373
-1.1671836 3.074605 0.91115427
-1.1659867 3.069428 0.9097867
-1.1641527 3.0640831 0.90769076
-1.1623163 3.058728 0.9055922
-1.1604762 3.0533631 0.90348935
-1.1580938 3.047847 0.90076709
-1.1551914 3.042181 0.89745069
-1.1523147 3.0365081 0.89416337
-1.1491181 3.0307341 0.89051008
-1.1445587 3.024574 0.88529921
-1.1401036 3.018419 0.88020849
-1.1346509 3.011966 0.8739779
-1.127985 3.005147 0.86635995
-1.1205831 2.9980872 0.85790229
-1.1107767 2.9903071 0.84669614
-1.0967741 2.9812732 0.83069348
-1.1133745 3.1819589 0.85716772
-1.1282196 3.1798189 0.87407565
-1.1359923 3.176373 0.88292909
-1.1422935 3.1726749 0.89010692
-1.1644523 3.0942001 0.91534615
-1.1641148 3.0892451 0.91496253
-1.1631536 3.0841351 0.91386771
-1.1621281 3.079005 0.91269875
-1.1611009 3.073869 0.91152883
-1.1600728 3.068728 0.91035795
-1.1583155 3.063396 0.90835762
-1.1564709 3.058033 0.9062562
-1.1546236 3.0526609 0.90415144
-1.1526233 3.0472391 0.9018724
-1.1497434 3.041574 0.89859319
-1.1468555 3.0358942 0.89530301
-1.1439592 3.0301971 0.89200449
-1.1397264 3.024122 0.88718271
-1.1352887 3.0179701 0.88212872
-1.1306686 3.0117459 0.87686586
-1.1241176 3.0049601 0.86940408
-1.1176527 2.9981651 0.86203957
-1.1084282 2.990555 0.85153317
-1.0975084 2.9824131 0.83909512
-1.0790017 2.9720252 0.81801534
-1.1171463 3.1783028 0.86892867
-1.127285 3.1752958 0.88044
-1.1337812 3.1716199 0.887815
-1.1581343 3.0934381 0.91546369
-1.1577996 3.0884759 0.91508341
-1.1570626 3.0834131 0.91424727
-1.156032 3.078275 0.91307664
-1.1550003 3.0731311 0.91190553
-1.1539671 3.067982 0.91073322
-1.1524634 3.0627079 0.90902495
-1.1506239 3.0573401 0.90693712
-1.1488035 3.0519691 0.90487051
-1.1469805 3.046587 0.90280056
-1.1442831 3.040966 0.89973807
-1.1413836 3.0352781 0.89644623
-1.1385126 3.029583 0.89318585
-1.1349182 3.0236781 0.88910604
-1.1304672 3.01752 0.88405275
-1.1260152 3.0113401 0.87899733
-1.1202481 3.0047722 0.87245059
-1.1137683 2.9979751 0.86509299
-1.1060805 2.9908032 0.85636568
-1.0966187 2.9830861 0.8456223
-1.0831361 2.9741611 0.8303144
-1.1059809 3.1767728 0.86373448
-1.1183887 3.1741848 0.87777638
-1.1249456 3.170505 0.88519597
-1.1518025 3.0926752 0.91558886
-1.1514664 3.0877051 0.91520882
-1.1509533 3.082689 0.91462827
-1.1499175 3.077543 0.9134562
-1.1488814 3.072391 0.91228271
-1.1478462 3.067234 0.91111112
-1.1466284 3.062026 0.90973282
-1.144803 3.0566561 0.90766859
-1.1429752 3.0512772 0.90559983
-1.1411442 3.045887 0.90352678
-1.13881 3.0403571 0.90088558
-1.1359417 3.034672 0.89764071
-1.1330984 3.02898 0.89442205
-1.1301033 3.0232329 0.89103293
-1.1256373 3.0170701 0.8859787
-1.121279 3.0109141 0.88104773
-1.1163757 3.0045841 0.8754971
-1.1099181 2.9977951 0.86818981
-1.1036828 2.9910362 0.86113405
-1.0943439 2.9833601 0.85056567
-1.0838268 2.9752991 0.83866382
-1.0675521 2.9655123 0.82024574
-1.086576 3.1736679 0.84930539
-1.1075437 3.172699 0.87295651
-1.1160464 3.1693809 0.88254666
-1.1457889 3.0968871 0.91609597
-1.1454511 3.0919101 0.9157145
-1.1451124 3.086931 0.91533375
-1.144774 3.0819502 0.9149518
-1.1437892 3.0768089 0.91384101
-1.142764 3.0716531 0.91268444
-1.1417371 3.0664921 0.91152644
-1.1407092 3.0613251 0.91036654
-1.1389666 3.0559702 0.90840149
-1.1371315 3.0505831 0.90633035
-1.1352928 3.045186 0.90425611
-1.1333737 3.0397592 0.90209222
-1.1305273 3.0340762 0.89888167
-1.1276724 3.0283771 0.89566135
-1.1248102 3.0226612 0.89243293
-1.1208801 3.0166402 0.88799953
-1.1165371 3.0104871 0.88310099
-1.112175 3.0043061 0.87818098
-1.1061509 2.9976382 0.87138462
-1.0999022 2.9908772 0.86433721
-1.0920913 2.9836402 0.85552621
-1.0831206 2.9760311 0.84540772
-1.0702732 2.9672523 0.83091593
-1.0478938 2.9556222 0.80567193
-1.0955317 3.1709919 0.86688089
-1.1070223 3.168236 0.87979937
-1.1137052 3.1645808 0.88731432
-1.1394179 3.096127 0.91622233
-1.139078 3.0911422 0.91584039
-1.138741 3.0861561 0.91546249
-1.1384056 3.0811682 0.91508436
-1.1376719 3.076081 0.91425991
-1.1366415 3.0709171 0.91310143
-1.1356103 3.065747 0.91194248
-1.1345773 3.0605721 0.91078067
-1.1331153 3.0552821 0.9091363
-1.1312835 3.04989 0.90707684
-1.1294744 3.0444951 0.90504336
-1.1276605 3.0390902 0.90300441
-1.1250994 3.0334783 0.90012455
-1.1222348 3.027771 0.89690351
-1.1193993 3.0220592 0.8937161
-1.1161439 3.0162182 0.89005518
-1.111788 3.0100591 0.88515759
-1.107429 3.0038772 0.88025713
-1.1023827 2.9974823 0.87458277
-1.0961211 2.9907193 0.86754274
-1.0898411 2.9839201 0.86048222
-1.0808659 2.976315 0.85039115
-1.070904 2.9683821 0.83919168
-1.0571783 2.9592991 0.82375836
-1.0827382 3.169138 0.85999298
-1.0971222 3.166923 0.87611341
-1.1045372 3.1633949 0.88442254
-1.1329191 3.1002531 0.91622972
-1.133033 3.095367 0.91635799
-1.1326954 3.090374 0.91597939
-1.1323578 3.0853801 0.91560078
-1.1320202 3.080384 0.91522217
-1.1315355 3.07535 0.91467953
-1.1305006 3.070178 0.91351891
-1.1294649 3.0650001 0.91235876
-1.1284285 3.0598171 0.91119671
-1.1272781 3.0546012 0.90990877
-1.1254647 3.0492072 0.90787554
-1.1236475 3.0438042 0.9058392
-1.1218266 3.0383911 0.9037981
-1.1196609 3.0328782 0.90137124
-1.116827 3.0271761 0.89819574
-1.1140189 3.0214672 0.89504862
-1.1112025 3.0157421 0.89189291
-1.1070302 3.0096302 0.88721681
-1.1027629 3.0034721 0.88243413
-1.0985096 2.9972973 0.8776679
-1.0923378 2.9905612 0.87075186
-1.0863137 2.9838352 0.86400008
-1.0786116 2.9766002 0.85536885
-1.0700417 2.9690752 0.84576416
-1.0580161 2.9605012 0.83228707
-1.0393682 2.9499192 0.81138945
-1.0850425 3.1651869 0.87004089
-1.095212 3.1621809 0.88140035
-1.1262634 3.0994391 0.91608572
-1.126611 3.0946 0.9164741
-1.1262932 3.0896041 0.91611862
-1.1259532 3.0846012 0.91573954
-1.1256142 3.079597 0.91536093
-1.1252742 3.0745912 0.91498041
-1.1243429 3.069437 0.91394043
-1.1233187 3.0642562 0.9127965
-1.1222928 3.0590692 0.9116509
-1.1212661 3.0538762 0.91050363
-1.1196291 3.0485229 0.90867591
-1.1178048 3.0431123 0.90663719
-1.1159763 3.0376911 0.90459514
-1.1141756 3.032269 0.90258288
-1.111445 3.0265892 0.89953327
-1.1086257 3.0208731 0.89638424
-1.1057992 3.015141 0.89322662
-1.1023376 3.0092211 0.88935995
-1.0980895 3.0030661 0.88461399
-1.0938241 2.9968863 0.87984967
-1.0886667 2.9904342 0.87408853
-1.0826302 2.9837072 0.86734605
-1.0763903 2.9768922 0.86037517
-1.0678728 2.9693892 0.85086155
-1.0585897 2.9616222 0.84049129
-1.0457487 2.9527643 0.82614732
-1.0719306 3.163255 0.86288333
-1.0858057 3.160955 0.87833095
-1.1192358 3.1034729 0.91555262
-1.1195841 3.098623 0.91594172
-1.1199331 3.093775 0.91632986
-1.1198695 3.0888309 0.91625834
-1.1195283 3.0838201 0.91587925
-1.1191895 3.078809 0.91550207
-1.1188526 3.0737951 0.91512704
-1.1181991 3.0687032 0.91439843
-1.1171696 3.063513 0.91325283
-1.1161389 3.0583181 0.9121058
-1.1151078 3.053118 0.91095734
-1.1137795 3.0478361 0.90947866
-1.1119566 3.0424201 0.90744901
-1.1101587 3.0370011 0.90544701
-1.1083579 3.0315731 0.90344119
-1.1060507 3.0260012 0.90087342
-1.1032219 3.0202782 0.89772296
-1.1004214 3.0145493 0.89460564
-1.0976527 3.0088151 0.89152241
-1.0934098 3.0026603 0.8867979
-1.0891378 2.9964762 0.88204098
-1.0849917 2.9903073 0.87742519
-1.0789428 2.9835782 0.87069035
-1.0729802 2.9768443 0.86405134
-1.0657053 2.9697032 0.85595226
-1.0573301 2.9622061 0.846627
-1.0463486 2.9539042 0.8343997
-1.031328 2.9443552 0.81767583
-1.0735834 3.1591759 0.87218189
-1.1125314 3.1026621 0.91540742
-1.1128817 3.0978041 0.91579628
-1.1132295 3.092947 0.91618252
-1.1134317 3.088057 0.91640544
-1.1130922 3.083039 0.91602921
-1.1127539 3.0780201 0.91565418
-1.1124153 3.072998 0.91527843
-1.1120369 3.067965 0.91485786
-1.1110027 3.062768 0.91371059
-1.1099689 3.0575652 0.91256261
-1.1089327 3.052356 0.91141367
-1.1079113 3.047147 0.91027999
-1.1061394 3.041738 0.9083128
-1.1043336 3.0363121 0.90630937
-1.1025248 3.0308762 0.90430212
-1.100646 3.0254121 0.90221643
-1.0978448 3.0196931 0.89910913
-1.0950732 3.013967 0.89603233
-1.0922947 3.0082262 0.89294791
-1.0887234 3.0022531 0.88898516
-1.0845382 2.9960911 0.88434029
-1.0803809 2.9899173 0.87972665
-1.0752568 2.9834502 0.87403941
-1.0693889 2.9767442 0.86752701
-1.0635345 2.970015 0.86103129
-1.0552404 2.9625483 0.85182619
-1.0469465 2.9550412 0.84262156
-1.0348823 2.9463801 0.82923245
-1.0169017 2.9359002 0.80927825
-1.0602267 3.1571798 0.86484361
-1.0733612 3.1547439 0.8793726
-1.1057954 3.1018469 0.91525078
-1.1061442 3.0969801 0.91563749
-1.1064949 3.092114 0.91602445
-1.1068428 3.0872512 0.91641045
-1.1066372 3.0822561 0.91618299
-1.1062965 3.0772281 0.91580606
-1.1059566 3.0721991 0.91543055
-1.1056163 3.067167 0.91505337
-1.1048176 3.062021 0.91417074
-1.1037939 3.056813 0.91303754
-1.1027699 3.0516009 0.91190529
-1.1017458 3.0463841 0.91077185
-1.1003067 3.0410542 0.90917945
-1.0984931 3.0356202 0.90717316
-1.0966761 3.0301771 0.90516424
-1.0948877 3.0247321 0.90318584
-1.0924969 3.0191162 0.90054011
-1.0897143 3.0133841 0.89746237
-1.086925 3.0076361 0.89437652
-1.0840852 3.0018601 0.89123654
-1.0799334 2.9957061 0.88664317
-1.0757635 2.9895272 0.88203096
-1.0716174 2.9833353 0.87744474
-1.0657949 2.9766443 0.87100291
-1.0599315 2.9699132 0.8645165
-1.0531528 2.9628892 0.85701799
-1.0449953 2.9554291 0.84799433
-1.035429 2.9475133 0.8374126
-1.0238202 2.9389443 0.82457113
-1.0619009 3.1531029 0.87415028
-1.0982344 3.105804 0.91421151
-1.099031 3.101028 0.91509008
-1.0993822 3.0961521 0.91547751
-1.0997341 3.0912781 0.91586542
-1.1000853 3.086406 0.91625285
-1.1001608 3.08147 0.91633582
-1.0998189 3.0764341 0.91595888
-1.099479 3.0713961 0.91558337
-1.0991411 3.0663581 0.9152112
-1.0986459 3.0612791 0.91466546
-1.0976193 3.0560641 0.91353369
-1.0965903 3.0508442 0.91239977
-1.0955617 3.045619 0.91126537
-1.0944579 3.040369 0.91004825
-1.0926447 3.0349293 0.90804887
-1.0908601 3.0294881 0.90608144
-1.0890722 3.0240381 0.90410995
-1.0871356 3.0185392 0.90197444
-1.0843432 3.0127993 0.8988955
-1.0815775 3.0070541 0.89584613
-1.0788486 3.0013041 0.89283681
-1.075321 2.9953213 0.88894749
-1.0711401 2.9891372 0.88433743
-1.0670786 2.9829671 0.87985897
-1.0622008 2.9765441 0.87448168
-1.0563788 2.9698281 0.8680625
-1.0507386 2.9631352 0.86184287
-1.0429287 2.9557812 0.85323119
-1.035182 2.9484093 0.84469056
-1.0243216 2.9400742 0.83271599
-1.0102317 2.9307213 0.8171792
-1.0474794 3.150877 0.86573172
-1.0911162 3.1049161 0.91369009
-1.0922432 3.1002059 0.91492939
-1.0925965 3.0953221 0.9153173
-1.0929501 3.0904391 0.9157052
-1.0933018 3.0855591 0.91609192
-1.093652 3.0806789 0.9164772
-1.0933285 3.075639 0.91612196
-1.0929899 3.0705941 0.91574907
-1.0926495 3.065547 0.91537595
-1.09231 3.0604992 0.91500258
-1.0914264 3.0553131 0.91403127
-1.0903938 3.0500841 0.91289592
-1.0893595 3.0448511 0.91176057
-1.08834 3.0396161 0.91063881
-1.0868292 3.0342491 0.90897942
-1.0850365 3.0288 0.90700889
-1.083241 3.0233421 0.90503502
-1.0814435 3.0178742 0.90305948
-1.0789957 3.0122232 0.90036988
-1.0762627 3.0064821 0.89736652
-1.0735219 3.0007262 0.8943541
-1.0707035 2.9949353 0.89125657
-1.0665939 2.9887691 0.88674045
-1.0625331 2.9825983 0.88227701
-1.0584562 2.9764023 0.87779617
-1.0528729 2.9697552 0.87166095
-1.0472226 2.9630613 0.86545086
-1.0409126 2.9561481 0.85851526
-1.0331628 2.9487813 0.84999847
-1.0248213 2.9412012 0.8408308
-1.0136817 2.9327443 0.82858801
-0.9978292 2.9228153 0.81116629
-1.0839591 3.104023 0.91315436
-1.0851014 3.0993052 0.91440511
-1.0857797 3.094487 0.91514921
-1.0861316 3.0895951 0.9155345
-1.0864832 3.0847051 0.91591954
-1.086834 3.0798171 0.91630411
-1.0868199 3.0748429 0.91628838
-1.0864794 3.0697889 0.91591501
-1.0861385 3.064734 0.91554165
-1.0857971 3.0596771 0.91516781
-1.0852153 3.054559 0.91453075
-1.0841908 3.0493259 0.91340876
-1.0831702 3.0440891 0.9122901
-1.0821481 3.0388472 0.91117144
-1.0809987 3.033566 0.90991044
-1.0791986 3.02811 0.9079392
-1.0773954 3.022644 0.9059639
-1.0756204 3.0171771 0.90401888
-1.073679 3.0116572 0.90189266
-1.070936 3.0059092 0.89888859
-1.068186 3.0001462 0.89587617
-1.0654595 2.9943771 0.89288878
-1.0620549 2.9884052 0.88915849
-1.057982 2.9822292 0.88469791
-1.0539114 2.9760332 0.88023806
-1.049367 2.9696822 0.87526035
-1.0437059 2.9629881 0.86905861
-1.0381517 2.9562962 0.86297393
-1.0311468 2.9491532 0.85530114
-1.0235374 2.9417963 0.84696579
-1.0142014 2.9338882 0.83673787
-1.0036299 2.9255633 0.8251574
-0.98648071 2.9151933 0.80637074
-1.0755932 3.1078501 0.91132593
-1.0767422 3.1031179 0.91258121
-1.0778909 3.098392 0.91383505
-1.078934 3.093647 0.91497374
-1.0792873 3.088747 0.91536021
-1.0796402 3.0838492 0.91574526
-1.0799942 3.0789521 0.91613102
-1.0802908 3.0740442 0.91645575
-1.0799482 3.0689821 0.91608191
-1.0796058 3.0639191 0.91570711
-1.0792675 3.0588551 0.91533852
-1.0789292 3.0537891 0.91496849
-1.0779898 3.0485702 0.91394401
-1.0769651 3.0433252 0.91282439
-1.0759392 3.0380752 0.91170382
-1.0749121 3.0328202 0.91058207
-1.0733497 3.0274191 0.9088769
-1.0715797 3.0219562 0.90694404
-1.0698054 3.0164843 0.9050076
-1.0680289 3.011003 0.90306759
-1.065599 3.0053351 0.90041399
-1.0628667 2.9995732 0.89743042
-1.0601771 2.9938102 0.89449382
-1.0574796 2.9880323 0.89154887
-1.0534248 2.9818592 0.88712168
-1.0494359 2.9756851 0.88276553
-1.0454679 2.9694982 0.87843227
-1.0401881 2.9629142 0.87266755
-1.0347183 2.9562492 0.8666954
-1.0291328 2.9495244 0.86059642
-1.0215852 2.9421923 0.85235596
-1.014168 2.9348633 0.84425616
-1.0041049 2.9267042 0.8332696
-0.99229932 2.9179683 0.82037783
-0.9685638 2.9055371 0.79446173
-1.0683415 3.106951 0.91074729
-1.0694971 3.102211 0.91200542
-1.0706513 3.0974751 0.91326118
-1.0718043 3.0927463 0.91451716
-1.072418 3.0878961 0.91518474
-1.0727732 3.0829902 0.91557169
-1.0731287 3.078084 0.91595745
-1.0734794 3.0731802 0.91634035
-1.0734031 3.0681741 0.9162569
-1.0730636 3.0631032 0.91588712
-1.0727239 3.0580311 0.91551709
-1.0723841 3.0529571 0.9151473
-1.0717721 3.0478132 0.91448116
-1.0707421 3.0425591 0.91336107
-1.0697114 3.0373011 0.9122386
-1.0686939 3.0320411 0.91113162
-1.0675359 3.0267401 0.90987182
-1.0657582 3.0212703 0.9079361
-1.0639775 3.0157902 0.90599799
-1.0621934 3.0103011 0.90405726
-1.060276 3.0047672 0.90196919
-1.0575833 2.9990122 0.89903903
-1.0548832 2.9932423 0.896101
-1.0521784 2.9874573 0.89315629
-1.0489171 2.9815042 0.88960791
-1.0449545 2.9753363 0.88529468
-1.0409758 2.9691453 0.88096523
-1.0367384 2.9628601 0.87635231
-1.031286 2.9562023 0.87041831
-1.0258033 2.9495091 0.86445093
-1.0196331 2.9425883 0.85773706
-1.0122147 2.9352641 0.84966254
-1.0045784 2.9278402 0.84135151
-0.99423718 2.9195623 0.83009744
-0.98123384 2.9104233 0.81594515
-1.0587795 3.1105571 0.90769076
-1.0610042 3.106035 0.91010427
-1.062223 3.101299 0.9114275
-1.0633788 3.096554 0.91268063
-1.0645325 3.091814 0.91393185
-1.0655181 3.0870411 0.91500187
-1.0658722 3.0821252 0.9153862
-1.0662265 3.0772102 0.91576958
-1.0665786 3.0722971 0.91615272
-1.0668411 3.0673642 0.91643715
-1.0664995 3.0622852 0.91606665
-1.0661583 3.0572042 0.91569686
-1.0658169 3.0521221 0.91532564
-1.0654752 3.0470381 0.91495538
-1.0645111 3.0417943 0.91390896
-1.0634949 3.0365322 0.91280675
-1.0624762 3.0312662 0.91170263
-1.0614576 3.0259943 0.91059732
-1.0599227 3.0205812 0.90893221
-1.0581348 3.0150943 0.90699196
-1.056371 3.0096042 0.90507841
-1.0546181 3.0041091 0.90317678
-1.0522897 2.9984493 0.90065145
-1.0495811 2.9926734 0.89771271
-1.0468879 2.9868882 0.89479113
-1.0442417 2.9811032 0.89192057
-1.040468 2.9749873 0.88782716
-1.0364785 2.9687922 0.88349938
-1.0326054 2.9626102 0.87929773
-1.0278513 2.9561553 0.87414026
-1.0224023 2.9494743 0.8682301
-1.017134 2.9428203 0.86251426
-1.0102646 2.9356654 0.85506248
-1.0031805 2.9284134 0.84737802
-0.9946692 2.9206963 0.83814502
-0.9849093 2.9125593 0.82755613
-0.97112322 2.9031403 0.81260204
-1.050885 3.1095331 0.9064827
-1.0531247 3.1050031 0.90890503
-1.0548775 3.1003742 0.91080022
-1.0560389 3.0956202 0.91205645
-1.0571983 3.0908711 0.91331005
-1.0583568 3.0861282 0.91456294
-1.058944 3.0812562 0.91519666
-1.0592992 3.076333 0.91558075
-1.0596545 3.0714121 0.91596508
-1.0600085 3.0664921 0.91634846
-1.0599148 3.0614641 0.91624761
-1.059572 3.056375 0.91587639
-1.0592332 3.0512853 0.91550994
-1.0588946 3.0461941 0.91514349
-1.0582855 3.0410323 0.91448474
-1.0572631 3.0357633 0.91338038
-1.056241 3.0304883 0.9122746
-1.0552177 3.0252082 0.91116786
-1.0540717 3.0198913 0.90992951
-1.0523171 3.0144072 0.9080317
-1.0505602 3.0089142 0.90613198
-1.0487995 3.0034113 0.90422893
-1.0469854 2.9978862 0.90226674
-1.0442851 2.9921083 0.89934707
-1.0416372 2.9863322 0.89648414
-1.0389824 2.9805412 0.8936131
-1.0359762 2.9746382 0.89036322
-1.0320506 2.9684591 0.8861177
-1.0281808 2.9622784 0.88193321
-1.0242972 2.9560742 0.87773466
-1.0190477 2.9494534 0.87205839
-1.0137691 2.9427984 0.86635113
-1.0083418 2.9360733 0.86048245
-1.0012898 2.9288373 0.8528564
-0.99421668 2.9215612 0.84520888
-0.98535895 2.9137094 0.83563137
-0.97582483 2.9056072 0.82532215
-0.96138978 2.8959475 0.8097136
-1.0429442 3.1085021 0.90525794
-1.0451975 3.1039631 0.90768647
-1.0474458 3.0994329 0.91010952
-1.0486693 3.0946832 0.91142845
-1.0498362 3.0899251 0.91268587
-1.0510008 3.0851731 0.91394114
-1.0519891 3.0803852 0.91500664
-1.0523465 3.0754533 0.91539121
-1.0527036 3.0705233 0.91577578
-1.0530579 3.0655932 0.91615796
-1.0533149 3.0606422 0.916435
-1.0529747 3.0555463 0.91606879
-1.052635 3.0504482 0.91570234
-1.0522947 3.0453482 0.91533613
-1.051955 3.0402472 0.91496897
-1.0510139 3.0349913 0.91395617
-1.0499873 3.0297081 0.91284919
-1.048974 3.0244231 0.91175604
-1.0479631 3.0191352 0.91066766
-1.046499 3.0137222 0.90908957
-1.044735 3.0082211 0.90718746
-1.0429668 3.0027113 0.90528202
-1.0412097 2.9971952 0.90338874
-1.0390341 2.9915571 0.90104389
-1.0363774 2.9857743 0.89818001
-1.0337136 2.9799771 0.89530921
-1.0310616 2.9741712 0.89245057
-1.027632 2.9681301 0.88875437
-1.023752 2.9619453 0.88457298
-1.0198624 2.9557383 0.88038135
-1.0156922 2.9494314 0.87588596
-1.0104063 2.9427762 0.87018943
-1.0051899 2.9361162 0.86456704
-0.99939895 2.9292603 0.85832715
-0.99237633 2.9220064 0.85075784
-0.98562694 2.9148002 0.84348369
-0.97623444 2.9067554 0.83335972
-0.96651578 2.8985643 0.82288623
-0.95237994 2.8889554 0.80765033
-1.0349677 3.1074662 0.90402651
-1.037235 3.1029181 0.90646291
-1.0394967 3.0983791 0.90889215
-1.0412712 3.0937412 0.91079879
-1.0424409 3.088974 0.91205573
-1.0436058 3.0842111 0.913306
-1.0447686 3.0794542 0.91455579
-1.0453608 3.0745671 0.9151926
-1.0457156 3.0696273 0.91557384
-1.0460706 3.0646892 0.91595507
-1.0464253 3.0597532 0.91633654
-1.0463572 3.0547142 0.91626215
-1.0460157 3.0496073 0.91589618
-1.0456734 3.0444992 0.91552782
-1.0453324 3.0393891 0.91516089
-1.0447559 3.0342183 0.91454268
-1.0437436 3.0289321 0.91345453
-1.0427301 3.0236411 0.91236615
-1.0417161 3.0183451 0.91127658
-1.0406656 3.0130343 0.91014838
-1.0388935 3.0075262 0.90824509
-1.0371447 3.0020161 0.90636516
-1.035408 2.9965003 0.90450048
-1.0336697 2.9909763 0.90263319
-1.0311067 2.9852161 0.89987969
-1.0284452 2.9794164 0.89701986
-1.0258436 2.9736202 0.89422584
-1.0232081 2.9678013 0.89139438
-1.0193183 2.9616122 0.88721538
-1.0155036 2.9554253 0.88311768
-1.01173 2.9492333 0.87906337
-1.007041 2.9427533 0.87402725
-1.0019002 2.9361184 0.86850452
-0.99679613 2.9294693 0.8630209
-0.9905386 2.9224503 0.85629916
-0.98378873 2.9152503 0.8490479
-0.97664189 2.9078984 0.84136987
-0.96746182 2.8998864 0.83150721
-0.95731521 2.8915315 0.82060862
-0.94378209 2.8820693 0.80607033
-1.0229955 3.1106319 0.89855075
-1.0268753 3.1064081 0.90270591
-1.0291564 3.101851 0.90514755
-1.0314324 3.0973032 0.90758467
-1.0337036 3.0927651 0.91001654
-1.0349741 3.0880101 0.91137743
-1.0361447 3.0832381 0.91263151
-1.0373147 3.0784712 0.91388321
-1.0383463 3.073678 0.9149878
-1.038702 3.0687292 0.91536975
-1.0390599 3.0637822 0.91575241
-1.0394163 3.0588362 0.9161334
-1.0397179 3.0538793 0.91645718
-1.0393746 3.0487652 0.91608953
-1.0390348 3.0436492 0.91572618
-1.0386972 3.0385323 0.91536307
-1.038358 3.0334132 0.9150002
-1.037487 3.0281563 0.91406846
-1.0364697 3.0228572 0.91297865
-1.0354509 3.0175533 0.91188717
-1.0344303 3.0122433 0.91079473
-1.0330756 3.0068402 0.90934467
-1.0313361 3.0013261 0.90748167
-1.0295925 2.9958043 0.90561533
-1.0278471 2.9902723 0.90374589
-1.025831 2.9846582 0.90158701
-1.0232272 2.9788704 0.89879894
-1.0206168 2.9730682 0.8960042
-1.0180001 2.9672513 0.89320135
-1.0149097 2.9612873 0.88989305
-1.0111403 2.9551122 0.88585663
-1.0073562 2.9489164 0.88180542
-1.0035787 2.9427032 0.87775993
-0.99861121 2.9361203 0.87244153
-0.99349928 2.9294724 0.86696672
-0.98849869 2.9228313 0.86161304
-0.98195362 2.9157014 0.85460424
-0.97531319 2.9085093 0.84749436
-0.96788478 2.9010453 0.83954072
-0.95899725 2.8930924 0.83002305
-0.94833922 2.8845463 0.81861138
-0.93473363 2.8750224 0.80404258
-1.0138304 3.109359 0.89613152
-1.017946 3.1051712 0.90052366
-1.0210261 3.100775 0.90381169
-1.0233159 3.0962181 0.90625548
-1.0256007 3.091671 0.90869331
-1.0274777 3.0870411 0.91069674
-1.0286546 3.0822601 0.91195297
-1.0298307 3.0774851 0.91320872
-1.0310049 3.0727141 0.91446161
-1.0316641 3.0678272 0.91516495
-1.0320227 3.0628712 0.91554809
-1.0323789 3.0579171 0.91592789
-1.0327327 3.0529633 0.91630578
-1.0327225 3.0479221 0.91629457
-1.032382 3.0427983 0.91593194
-1.032043 3.0376723 0.91556907
-1.0317025 3.0325451 0.91520619
-1.0312128 3.0273781 0.91468334
-1.03019 3.0220711 0.91359258
-1.0291789 3.0167623 0.91251326
-1.0281746 3.0114493 0.91144061
-1.0271692 3.0061321 0.91036725
-1.0255129 3.0006351 0.90860009
-1.0237634 2.9951062 0.90673304
-1.0220211 2.9895701 0.90487385
-1.0203078 2.9840331 0.9030447
-1.0179989 2.9783232 0.9005816
-1.0153801 2.9725142 0.89778614
-1.0127583 2.9666934 0.89498806
-1.010206 2.9608793 0.89226294
-1.006772 2.9547992 0.8885982
-1.0029788 2.9485993 0.88455009
-0.9992733 2.9424062 0.88059473
-0.9953227 2.9361234 0.87637925
-0.99020171 2.9294744 0.87091374
-0.98527169 2.9228573 0.86565161
-0.98012018 2.9161503 0.86015272
-0.97352505 2.9089794 0.85311365
-0.9670651 2.9018183 0.8462193
-0.9593823 2.8942494 0.83801937
-0.95072246 2.8863382 0.82877803
-0.94017267 2.8777933 0.81751728
-0.92645001 2.8681953 0.80287218
-1.0045655 3.1080689 0.89364696
-1.0087504 3.1038802 0.89809847
-1.012857 3.0996952 0.90246725
-1.0151613 3.0951281 0.90491891
-1.0174599 3.0905721 0.90736461
-1.0197546 3.0860252 0.90980577
-1.0211329 3.0812793 0.91127181
-1.0223074 3.0764921 0.91252089
-1.0234816 3.0717111 0.91376972
-1.0245922 3.0669203 0.91495109
-1.0249481 3.0619552 0.91533089
-1.025305 3.0569911 0.91570997
-1.0256617 3.0520291 0.91608882
-1.0260172 3.0470681 0.91646814
-1.0257082 3.0419443 0.9161396
-1.0253668 3.0368102 0.91577625
-1.0250249 3.0316741 0.91541219
-1.0246861 3.0265381 0.91505218
-1.0239189 3.0212891 0.91423631
-1.0229108 3.0159743 0.91316342
-1.0219021 3.0106533 0.91208935
-1.0208924 3.0053282 0.91101527
-1.019676 2.9999433 0.90972185
-1.01794 2.9944112 0.90787482
-1.0162222 2.9888763 0.9060483
-1.0145028 2.9833331 0.90421915
-1.0127614 2.9777753 0.90236616
-1.010134 2.9719603 0.89957023
-1.0075741 2.9661531 0.89684772
-1.0050108 2.9603324 0.89412141
-1.0023999 2.9544852 0.89134288
-0.99863768 2.9482932 0.88734174
-0.99496412 2.9421084 0.88343263
-0.99127698 2.9359024 0.87950993
-0.98696518 2.9294944 0.87492323
-0.98204613 2.9228833 0.86969018
-0.97710371 2.9162424 0.86443353
-0.97173953 2.9094484 0.85872602
-0.96527863 2.9022944 0.85185313
-0.95897841 2.8951583 0.84515142
-0.95112371 2.8875093 0.83679438
-0.94281745 2.8796813 0.82795763
-0.93210936 2.8710554 0.81656694
-0.91859365 2.8614855 0.80218816
-0.99461269 3.1066341 0.89047408
-0.99930954 3.10254 0.89545441
-1.0035076 3.0983591 0.89990664
-1.0068836 3.0940151 0.90348601
-1.0091958 3.0894482 0.90593767
-1.011503 3.0848923 0.90838408
-1.0135353 3.0802832 0.91053867
-1.0147161 3.0754871 0.9117918
-1.0158958 3.0706961 0.91304302
-1.0170751 3.0659111 0.9142921
-1.0178473 3.0610342 0.91511106
-1.0182049 3.0560613 0.91549063
-1.0185633 3.0510902 0.91587114
-1.0189214 3.0461211 0.91624999
-1.0190132 3.0410872 0.91634774
-1.0186732 3.0359452 0.91598701
-1.0183353 3.0308032 0.91562891
-1.0179965 3.0256581 0.91527033
-1.0176368 3.0205073 0.91488886
-1.0166242 3.0151832 0.91381478
-1.0156109 3.0098553 0.91273999
-1.0145972 3.0045223 0.91166449
-1.0136001 2.9991882 0.91060758
-1.0121341 2.9937243 0.90905356
-1.0104098 2.9881823 0.90722537
-1.0086839 2.9826312 0.90539479
-1.006954 2.9770713 0.90356064
-1.0049431 2.9714243 0.90142822
-1.0023785 2.9656112 0.89870977
-0.99980831 2.9597852 0.89598417
-0.99723125 2.9539452 0.89325094
-0.99433398 2.9479992 0.89017892
-0.99065042 2.9418113 0.88627386
-0.98695445 2.9356022 0.88235378
-0.98335314 2.9294033 0.87853575
-0.97881913 2.9229083 0.87372875
-0.97388244 2.9162712 0.8684938
-0.96913695 2.9096684 0.86346102
-0.96349454 2.9027684 0.85747862
-0.95723605 2.8956523 0.850842
-0.95105529 2.8885303 0.84428883
-0.94317818 2.8808484 0.83593631
-0.93500781 2.8730364 0.82727265
-0.92465043 2.8644915 0.81628942
-0.91197586 2.8551555 0.80285001
-0.98249793 3.1047411 0.88506293
-0.98981309 3.101192 0.89279485
-0.99404335 3.0970011 0.89726496
-0.99825597 3.0928271 0.90171742
-1.00088 3.0883172 0.90449119
-1.0032022 3.0837512 0.90694618
-1.0055187 3.0791941 0.90939379
-1.0070939 3.0744781 0.9110589
-1.0082805 3.0696781 0.91231322
-1.0094655 3.0648832 0.91356587
-1.0106494 3.0600941 0.91481662
-1.0110798 3.0551291 0.91527152
-1.0114372 3.050148 0.91564965
-1.0117929 3.0451691 0.9160254
-1.0121489 3.0401912 0.91640091
-1.0119653 3.0350802 0.91620779
-1.0116265 3.0299292 0.91584897
-1.0112867 3.0247762 0.91548967
-1.0109458 3.0196211 0.91513062
-1.0103199 3.0143912 0.91446829
-1.0093129 3.0090573 0.91340399
-1.0083141 3.0037212 0.91234899
-1.0073144 2.9983802 0.91129231
-1.0063157 2.9930353 0.91023636
-1.0045838 2.9874852 0.90840602
-1.0028555 2.9819283 0.90657973
-1.0011632 2.9763732 0.90479016
-0.99946833 2.9708092 0.90299845
-0.99717426 2.9650693 0.90057468
-0.99459481 2.9592361 0.89784908
-0.99207711 2.9534092 0.8951869
-0.98956394 2.9475722 0.89253139
-0.98633313 2.9415133 0.88911676
-0.98267436 2.9353142 0.88525033
-0.97909546 2.9291213 0.88146782
-0.97550607 2.9229083 0.8776741
-0.97072268 2.9163194 0.87261868
-0.96597052 2.9097173 0.86759567
-0.96119785 2.9030852 0.86255074
-0.95549512 2.8961463 0.85652423
-0.94931483 2.8890305 0.84999228
-0.94332075 2.8819444 0.84365749
-0.93538427 2.8742185 0.83526826
-0.92757869 2.8664954 0.82701898
-0.91729856 2.8579454 0.81615424
-0.90555549 2.8488755 0.80374193
-0.96973729 3.102715 0.87903142
-0.97869062 3.0994961 0.88846445
-0.98447227 3.095624 0.89455462
-0.98875546 3.0914493 0.89906645
-0.99252486 3.0871801 0.90303874
-0.99486113 3.0826042 0.90549898
-0.99719262 3.0780382 0.90795541
-0.99943876 3.0734642 0.91032195
-1.0006242 3.0686531 0.9115696
-1.001807 3.0638471 0.912817
-1.0029893 3.0590463 0.91406202
-1.0039172 3.0541902 0.9150393
-1.0042739 3.0492001 0.91541553
-1.0046313 3.0442114 0.91579247
-1.0049891 3.0392253 0.91616845
-1.0052354 3.0342121 0.91642857
-1.0048947 3.0290523 0.91606951
-1.0045531 3.0238912 0.91570973
-1.0042143 3.0187283 0.91535258
-1.0038784 3.0135653 0.91499877
-1.0030191 3.0082631 0.91409373
-1.0020158 3.0029192 0.91303658
-1.0010126 2.9975703 0.9119792
-1.0000088 2.9922163 0.91092157
-0.99875784 2.9867914 0.90960407
-0.99706101 2.9812374 0.90781641
-0.99536109 2.9756753 0.90602589
-0.9936583 2.9701042 0.90423274
-0.99195385 2.9645243 0.90243697
-0.98942852 2.9587033 0.89977622
-0.98691392 2.9528732 0.89712715
-0.98439384 2.9470303 0.89447212
-0.98186779 2.9411743 0.89181066
-0.97842145 2.9350362 0.88818121
-0.97483397 2.9288392 0.88440228
-0.97123599 2.9226234 0.88061142
-0.96756339 2.9163673 0.87674308
-0.96280503 2.9097652 0.87172914
-0.95805311 2.9031434 0.86672354
-0.9534719 2.8965504 0.86189651
-0.94757724 2.8895304 0.8556869
-0.9416194 2.8824613 0.84941077
-0.93570924 2.8753793 0.84318542
-0.92791724 2.8676744 0.8349762
-0.92020392 2.8599563 0.82685137
-0.91047049 2.8515534 0.81659675
-0.89986539 2.8428214 0.80542517
-0.94811893 3.0988002 0.86376452
-0.96588326 3.0974402 0.88241839
-0.97468185 3.0942042 0.8916564
-0.97899628 3.0900192 0.89618802
-0.98329425 3.0858512 0.90070033
-0.98638415 3.0814302 0.90394425
-0.98872662 3.0768542 0.90640473
-0.99106526 3.0722871 0.90886045
-0.99289727 3.0676141 0.91078424
-0.99408746 3.0627992 0.91203356
-0.99527621 3.0579891 0.91328168
-0.99646378 3.0531843 0.91452885
-0.99708438 3.0482483 0.9151814
-0.99744391 3.0432513 0.91555882
-0.99780345 3.0382552 0.91593623
-0.99816203 3.0332613 0.91631293
-0.99814487 3.0281744 0.91629457
-0.9978075 3.0230052 0.91593933
-0.99746966 3.0178351 0.91558552
-0.99713278 3.0126634 0.91523123
-0.99670768 3.0074673 0.91478419
-0.99570012 3.0021152 0.91372728
-0.99469185 2.9967585 0.91266847
-0.99370146 2.9914012 0.91162872
-0.99271178 2.9860394 0.91058969
-0.99125195 2.9805443 0.90905619
-0.98954654 2.9749753 0.90726495
-0.98783708 2.9693973 0.90547037
-0.98616123 2.9638193 0.90371037
-0.98426485 2.9581723 0.90171981
-0.98174262 2.9523373 0.89907074
-0.97921419 2.9464884 0.89641666
-0.9767375 2.9406424 0.89381599
-0.97416568 2.9347572 0.89111519
-0.97057033 2.9285583 0.88733983
-0.96701097 2.9223523 0.88360262
-0.96352935 2.9161534 0.87994623
-0.95963955 2.9098144 0.87586236
-0.95494986 2.9032135 0.87093782
-0.95036197 2.8966215 0.86612082
-0.94575405 2.8900013 0.86128187
-0.93992043 2.8829784 0.85515714
-0.93401027 2.8759034 0.84895015
-0.92825484 2.8688483 0.84290648
-0.92055583 2.8611484 0.83482242
-0.91318202 2.8535166 0.82708025
-0.90367675 2.8451595 0.81709933
-0.89363718 2.8365834 0.80655766
-0.87645745 2.8256195 0.78851819
-0.94988275 3.0947022 0.87309551
-0.96202707 3.0921631 0.88580537
-0.96917987 3.0885801 0.89329123
-0.97351003 3.0844021 0.89782429
-0.97782302 3.0802412 0.90233731
-0.98021793 3.0756631 0.90484428
-0.98257136 3.0710871 0.90730739
-0.98491931 3.0665212 0.90976429
-0.98633599 3.0617471 0.91124821
-0.98753142 3.0569282 0.91249943
-0.98872519 3.0521142 0.91374922
-0.98986912 3.0472932 0.91494536
-0.99022865 3.0422864 0.91532111
-0.99058414 3.0372803 0.915694
-0.99094057 3.0322762 0.9160676
-0.99129725 3.0272732 0.91644001
-0.99104285 3.0221171 0.91617417
-0.99070358 3.0169392 0.91581917
-0.99036431 3.0117583 0.91546392
-0.99002552 3.0065763 0.91510916
-0.98937464 3.0013103 0.91442847
-0.98838377 2.9959512 0.91339087
-0.98739076 2.9905872 0.91235256
-0.9863975 2.9852173 0.91131306
-0.98540378 2.9798434 0.91027284
-0.98371673 2.9742732 0.90850616
-0.98204374 2.9687004 0.90675521
-0.98037004 2.9631183 0.90500355
-0.97869349 2.9575274 0.90324926
-0.97656274 2.9517994 0.90101886
-0.97407031 2.9459584 0.89841056
-0.97160721 2.9401124 0.89583206
-0.96913743 2.9342544 0.89324808
-0.96630168 2.9282753 0.89028001
-0.96280837 2.9220893 0.88662434
-0.95931888 2.9158874 0.88297153
-0.95581841 2.9096644 0.87930727
-0.9518466 2.9032834 0.87515092
-0.94725251 2.8966925 0.87034297
-0.9426744 2.8900845 0.86555123
-0.93822384 2.8834944 0.86089253
-0.93231368 2.8764255 0.85470748
-0.92662716 2.8694005 0.8487556
-0.92090511 2.8623364 0.84276628
-0.91349554 2.8547044 0.83501291
-0.906214 2.8470795 0.82739115
-0.89741611 2.8389263 0.81818223
-0.88752866 2.8303745 0.8078351
-0.87216425 2.8199694 0.79175377
-0.94845963 3.0899291 0.87906647
-0.95786715 3.0868163 0.88888049
-0.96359086 3.0829282 0.89485073
-0.96797514 3.0787661 0.89942503
-0.97165942 3.0744653 0.90326858
-0.97402334 3.0698781 0.90573502
-0.97638202 3.0653012 0.90819454
-0.97854018 3.0606883 0.91044664
-0.97973299 3.0558572 0.91169024
-0.98092389 3.0510311 0.9129324
-0.98211288 3.0462103 0.91417432
-0.98297381 3.0413153 0.91507149
-0.98333216 3.0363002 0.91544533
-0.98369098 3.0312872 0.91581941
-0.9840486 3.0262752 0.91619253
-0.98425555 3.0212274 0.91640949
-0.98391485 3.0160394 0.91605306
-0.98357749 3.0108514 0.91570067
-0.98324227 3.0056622 0.91535163
-0.98290682 3.0004711 0.91500211
-0.98205972 2.9951434 0.91411781
-0.98106313 2.9897704 0.91307807
-0.9800663 2.9843934 0.91203809
-0.97907376 2.9790134 0.91100264
-0.97792387 2.9735842 0.90980291
-0.9762454 2.9680042 0.90805244
-0.97456527 2.9624152 0.90629911
-0.97288275 2.9568174 0.90454435
-0.97122049 2.9512174 0.9028101
-0.96893907 2.9454324 0.90043092
-0.96646762 2.9395814 0.89785194
-0.96398973 2.9337173 0.89526772
-0.96155739 2.9278543 0.89272928
-0.95860267 2.9218254 0.88964844
-0.95510483 2.9156203 0.88599896
-0.95164227 2.9094095 0.88238621
-0.94825768 2.9032054 0.87885571
-0.94414377 2.8967633 0.87456417
-0.93962431 2.8901753 0.86984921
-0.93519711 2.8835955 0.8652308
-0.930619 2.8769474 0.8604548
-0.92496538 2.8699384 0.85455656
-0.91931581 2.8629045 0.84866333
-0.91380978 2.8558896 0.84291935
-0.90654087 2.8482804 0.83533597
-0.89954138 2.8407245 0.82803464
-0.89113998 2.8326764 0.81926966
-0.88176227 2.8242674 0.80948663
-0.86845994 2.8145134 0.79560971
-0.94426155 3.0845532 0.88213897
-0.95345807 3.0814111 0.8917017
-0.95787787 3.0772393 0.8962965
-0.9622786 3.0730841 0.90087318
-0.96534085 3.0686412 0.90405607
-0.96771383 3.0640543 0.9065237
-0.97008228 3.0594773 0.90898776
-0.97187376 3.0547752 0.91084957
-0.97307229 3.0499392 0.91209555
-0.9742682 3.0451093 0.91333961
-0.97546387 3.0402842 0.91458297
-0.97605276 3.0353162 0.91519594
-0.97641253 3.0302932 0.91556954
-0.97677302 3.0252733 0.91594386
-0.97712874 3.0202532 0.91631413
-0.97711301 3.0151393 0.91629839
-0.97677636 3.0099432 0.91594791
-0.97644067 3.0047452 0.91559839
-0.97610402 2.9995463 0.91524792
-0.97571826 2.9943323 0.91484737
-0.97471714 2.9889524 0.91380644
-0.97373271 2.9835713 0.91278315
-0.97275114 2.9781873 0.91176248
-0.97177029 2.9727983 0.91074228
-0.97043371 2.9673064 0.90935302
-0.96874785 2.9617105 0.90759897
-0.96708608 2.9561133 0.90587211
-0.9654386 2.9505134 0.90415907
-0.96378946 2.9449043 0.90244389
-0.9613204 2.9390504 0.89987612
-0.9588685 2.9331903 0.8973279
-0.95645809 2.9273305 0.89482093
-0.95404124 2.9214573 0.89230728
-0.95088816 2.9153543 0.88902855
-0.94748855 2.9091613 0.88549447
-0.94409657 2.9029546 0.88196683
-0.94069457 2.8967295 0.87842917
-0.9365747 2.8902664 0.87414598
-0.9321425 2.8836884 0.86953664
-0.92772436 2.8770924 0.8649435
-0.92330742 2.8704774 0.86035061
-0.91765785 2.8634496 0.85447574
-0.91221309 2.8564615 0.84881425
-0.90681577 2.8494616 0.84320188
-0.89983225 2.8419235 0.83594108
-0.89295578 2.8343854 0.82879019
-0.88531923 2.8265665 0.8208499
-0.87598515 2.8181496 0.81114435
-0.86475348 2.8090544 0.79946542
-0.92416573 3.0808721 0.8687396
-0.93997335 3.0791543 0.88512254
-0.94771671 3.0757031 0.8931489
-0.95215225 3.0715373 0.89774513
-0.95657039 3.0673892 0.90232444
-0.95900273 3.0628023 0.90484571
-0.96138668 3.0582151 0.90731621
-0.96376491 3.0536382 0.90978169
-0.96518588 3.0488431 0.91125441
-0.96639013 3.0440042 0.91250277
-0.96759295 3.0391693 0.91374826
-0.96874356 3.0343282 0.91494083
-0.96910095 3.0292952 0.91531134
-0.96945858 3.0242643 0.91568184
-0.96981525 3.0192342 0.91605163
-0.97017097 3.0142062 0.91642094
-0.96995401 3.0090322 0.91619563
-0.96961617 3.0038261 0.91584539
-0.96927738 2.9986184 0.91549468
-0.9689424 2.9934094 0.91514683
-0.96838117 2.9881382 0.91456652
-0.96739793 2.9827514 0.9135468
-0.96641278 2.9773593 0.91252565
-0.96542668 2.9719625 0.91150379
-0.96443939 2.9665604 0.91048074
-0.96294928 2.9610133 0.90893674
-0.96129799 2.9554143 0.90722513
-0.95964479 2.9498065 0.90551138
-0.9579885 2.9441905 0.90379524
-0.956182 2.9385233 0.90192294
-0.95376873 2.9326713 0.89942169
-0.95135045 2.9268055 0.89691448
-0.94892526 2.9209275 0.89440179
-0.94653654 2.9150484 0.89192486
-0.94333291 2.9089134 0.88860464
-0.93993258 2.9027045 0.88508081
-0.93656135 2.8964875 0.88158751
-0.93327403 2.8902805 0.8781805
-0.92908955 2.8837805 0.87384272
-0.92472458 2.8772054 0.86931992
-0.92045808 2.8706393 0.86489773
-0.91600227 2.8639934 0.86027908
-0.91058731 2.8570213 0.85466766
-0.90518951 2.8500285 0.84907317
-0.89993715 2.8430576 0.84362912
-0.89325833 2.8355966 0.8367064
-0.886585 2.8281064 0.82979107
-0.8795619 2.8204684 0.82251191
-0.8706882 2.8121815 0.81331396
-0.86115575 2.8036315 0.80343533
-0.84729099 2.7935736 0.7890656
-0.92549348 3.0766842 0.87758565
-0.93541145 3.0736902 0.88783216
-0.94183731 3.0699532 0.8944695
-0.94632912 3.0658031 0.89911079
-0.95021582 3.0615351 0.90312505
-0.9526093 3.0569363 0.90559816
-0.95499778 3.0523481 0.9080658
-0.9572413 3.0477362 0.91038299
-0.95844126 3.0428843 0.91162252
-0.95963979 3.0380373 0.91286063
-0.9608376 3.0331962 0.91409802
-0.96175551 3.0282912 0.91504693
-0.96211386 3.0232513 0.91541672
-0.96247315 3.0182123 0.91578746
-0.96283221 3.0131752 0.91615796
-0.96310925 3.0081182 0.91644526
-0.96277213 3.0029042 0.91609716
-0.96243882 2.9976892 0.91575217
-0.9621048 2.9924722 0.9154067
-0.96176934 2.9872544 0.91506124
-0.96104431 2.9819293 0.91431189
-0.96005511 2.9765294 0.91328979
-0.95906949 2.9711254 0.91227245
-0.95810103 2.9657214 0.91127181
-0.95713019 2.9603124 0.91026902
-0.95549726 2.9547133 0.9085815
-0.95383811 2.9490983 0.90686703
-0.95219064 2.9434805 0.90516615
-0.95057154 2.9378614 0.90349293
-0.94866061 2.9321504 0.90151858
-0.94623375 2.9262805 0.89901257
-0.94382477 2.9204035 0.89652371
-0.94146752 2.9145303 0.89408731
-0.93910456 2.9086444 0.89164662
-0.93576455 2.9024534 0.88819647
-0.9324553 2.8962545 0.88477731
-0.92916012 2.8900454 0.88137388
-0.92585611 2.8838174 0.87796068
-0.92172575 2.8773174 0.8736949
-0.917454 2.8707523 0.86928153
-0.9131856 2.8641694 0.86487079
-0.90896487 2.8575804 0.86051083
-0.9035666 2.8505955 0.85493541
-0.89834142 2.8436394 0.84953666
-0.89318657 2.8366814 0.8442111
-0.8868525 2.8293135 0.83766794
-0.8803587 2.8218634 0.83095932
-0.8740046 2.8144286 0.82439661
-0.86538076 2.8062036 0.81548691
-0.85711408 2.7980585 0.80694699
-0.84453821 2.7884107 0.79395628
-0.79363632 2.7600718 0.74137163
-0.79865932 2.7562866 0.74656034
-0.80390859 2.7526035 0.75198317
-0.80939746 2.7490306 0.75765419
-0.92089868 3.0711913 0.88030314
-0.93084311 3.0682201 0.89054155
-0.93586612 3.0641723 0.89571452
-0.9403758 3.0600293 0.90035748
-0.94371605 3.0556352 0.9037962
-0.94612026 3.0510373 0.90627313
-0.94851899 3.0464482 0.90874243
-0.95044565 3.0417573 0.91072607
-0.95165086 3.0369003 0.91196728
-0.95285535 3.0320492 0.91320777
-0.95405912 3.0272033 0.91444612
-0.95474386 3.0222342 0.91515136
-0.95510364 3.0171862 0.91552234
-0.95546007 3.0121384 0.91588926
-0.95581579 3.0070922 0.91625571
-0.95591569 3.0019822 0.91635895
-0.95557928 2.9967585 0.916013
-0.95524383 2.9915333 0.91566753
-0.95490837 2.9863062 0.91532207
-0.9545722 2.9810772 0.91497612
-0.95369554 2.9757004 0.9140718
-0.9527235 2.9702933 0.91307092
-0.95175004 2.9648824 0.91207004
-0.95077658 2.9594653 0.91106653
-0.94968271 2.9540102 0.9099412
-0.94803667 2.9483943 0.90824533
-0.94641328 2.9427774 0.90657377
-0.94478846 2.9371524 0.90490079
-0.9431603 2.9315183 0.90322447
-0.94111609 2.9257555 0.90111971
-0.93875599 2.9198895 0.89868927
-0.93639088 2.9140115 0.8962543
-0.93401957 2.9081204 0.89381266
-0.93163776 2.9022145 0.89135981
-0.92834496 2.8960214 0.88797045
-0.92504382 2.8898094 0.88457108
-0.92176127 2.8835883 0.88119006
-0.91857147 2.8773804 0.87790656
-0.91445184 2.8708663 0.87366414
-0.91023374 2.8643014 0.86932063
