# .PCD v0.7 - Point Cloud Data file format
VERSION 0.7
FIELDS x y z
SIZE 4 4 4
TYPE F F F
COUNT 1 1 1
WIDTH 1514
HEIGHT 1
VIEWPOINT 0 0 0 1 0 0 0
POINTS 1514
DATA ascii
-1.5184283 2.3735309 0.85114288
-1.5186541 2.3682909 0.85137939
-1.5188804 2.3630509 0.85161495
-1.5191061 2.3578129 0.85185003
-1.5193319 2.3525758 0.85208654
-1.5195575 2.3473399 0.85232162
-1.519784 2.3421049 0.85255718
-1.5200093 2.3368709 0.85279322
-1.5202358 2.3316379 0.85302901
-1.5204613 2.326406 0.85326385
-1.5206864 2.3211749 0.85349989
-1.5209122 2.3159449 0.85373473
-1.5211377 2.3107159 0.85397005
-1.5213642 2.3054888 0.85420561
-1.5215893 2.300262 0.85444164
-1.5218141 2.295037 0.85467601
-1.5214322 2.2897689 0.8542769
-1.5185935 2.2843189 0.85131574
-1.5154452 2.2788329 0.84803152
-1.5114741 2.273267 0.84388876
-1.5074887 2.2676809 0.83973145
-1.5034888 2.2620749 0.83555937
-1.4994757 2.256448 0.83137178
-1.4953458 2.250793 0.82706356
-1.4881012 2.244838 0.81950641
-1.4826233 2.239011 0.81379128
-1.4832108 2.2337341 0.81440425
-1.4837973 2.2284589 0.81501675
-1.4843841 2.223187 0.81562924
-1.4849706 2.217917 0.81623983
-1.4855564 2.212651 0.81685185
-1.4861429 2.207387 0.81746268
-1.486728 2.2021251 0.81807375
-1.4873128 2.196867 0.81868339
-1.4878981 2.1916111 0.81929445
-1.4884825 2.186358 0.81990337
-1.4890668 2.181108 0.82051373
-1.4896507 2.1758611 0.82112288
-1.4902351 2.1706161 0.82173181
-1.4908187 2.165374 0.82234025
-1.4914012 2.160135 0.82294941
-1.4919832 2.1548982 0.82355642
-1.4925661 2.1496642 0.82416415
-1.4931476 2.144433 0.8247714
-1.4937298 2.1392052 0.82537842
-1.4943111 2.1339791 0.82598472
-1.4948926 2.128756 0.82659197
-1.495352 2.1235182 0.82706976
-1.4956849 2.1182642 0.8274169
-1.4960165 2.1130111 0.82776332
-1.4963493 2.1077602 0.82811046
-1.4966812 2.1025102 0.82845688
-1.497014 2.0972621 0.82880402
-1.4973462 2.0920162 0.82915044
-1.4838066 2.5481346 0.82267118
-1.508486 2.5417616 0.8483336
-1.5121326 2.5363517 0.85212588
-1.512465 2.5310836 0.85247159
-1.512799 2.5258167 0.85281873
-1.5130632 2.5205545 0.85309362
-1.5132899 2.5152936 0.85332942
-1.5462809 2.5091047 0.88763332
-1.5464435 2.5039268 0.88780212
-1.5466056 2.4987476 0.88797116
-1.5467675 2.4935708 0.88813949
-1.5469301 2.4883947 0.88830829
-1.5470922 2.4832187 0.88847733
-1.5472538 2.4780438 0.88864541
-1.5474162 2.4728696 0.88881445
-1.5153296 2.4680007 0.85544968
-1.5155556 2.4627516 0.855685
-1.5157821 2.4575038 0.85592055
-1.5160086 2.4522557 0.85615635
-1.5162351 2.4470098 0.85639071
-1.5164614 2.4417648 0.85662651
-1.5166872 2.4365208 0.85686159
-1.5169134 2.4312778 0.85709715
-1.5171399 2.4260359 0.85733151
-1.5173655 2.4207947 0.8575666
-1.5175912 2.4155548 0.85780144
-1.517817 2.4103158 0.85803676
-1.5180433 2.4050789 0.85827088
-1.5182691 2.3998418 0.8585062
-1.5184946 2.3946068 0.85874128
-1.5187204 2.3893719 0.85897613
-1.5189459 2.3841388 0.85920978
-1.5191717 2.3789058 0.85944486
-1.5193973 2.3736749 0.85968018
-1.5196238 2.3684449 0.8599143
-1.5198486 2.3632159 0.86014891
-1.5200744 2.3579879 0.86038399
-1.5202999 2.3527608 0.86061764
-1.5205247 2.3475349 0.860852
-1.5207496 2.34231 0.86108637
-1.5209761 2.337086 0.8613205
-1.5212009 2.3318629 0.8615551
-1.521425 2.3266418 0.86178875
-1.5216513 2.3214209 0.86202312
-1.5218756 2.316201 0.862257
-1.5221012 2.3109829 0.86249065
-1.522326 2.3057659 0.86272502
-1.5225508 2.300549 0.86295938
-1.5227759 2.2953339 0.86319256
-1.5226541 2.2900949 0.86306548
-1.5198212 2.284657 0.86012077
-1.5169828 2.2792048 0.8571682
-1.5141358 2.2737389 0.85420918
-1.5112817 2.2682581 0.85124135
-1.5076547 2.262701 0.84746933
-1.5036631 2.2570949 0.84331846
-1.499656 2.2514689 0.83915186
-1.4956346 2.245822 0.83497071
-1.4916365 2.240159 0.83081317
-1.4919693 2.2348871 0.83116031
-1.4923017 2.2296159 0.83150601
-1.4926353 2.2243471 0.83185244
-1.4929686 2.219079 0.83219862
-1.4933021 2.2138131 0.83254504
-1.4936337 2.2085481 0.83289003
-1.4939666 2.2032859 0.83323717
-1.4942992 2.198024 0.83358288
-1.494632 2.192764 0.83392859
-1.4949644 2.187506 0.83427405
-1.4952972 2.1822491 0.83461976
-1.4956288 2.1769941 0.83496499
-1.4959607 2.171741 0.83530998
-1.4962933 2.1664891 0.83565569
-1.4966245 2.1612382 0.8360002
-1.4969563 2.1559892 0.8363452
-1.4972882 2.1507421 0.83668995
-1.4976199 2.1454961 0.83703494
-1.4979513 2.1402521 0.83737946
-1.4982829 2.1350091 0.83772445
-1.4986143 2.1297681 0.83806896
-1.498946 2.1245282 0.83841395
-1.4992759 2.1192911 0.83875775
-1.4996071 2.1140542 0.83910227
-1.4999378 2.1088192 0.83944583
-1.5002687 2.1035862 0.83979034
-1.5005996 2.0983541 0.84013319
-1.4922163 2.5476046 0.83901072
-1.5110574 2.5415087 0.85853791
-1.5133648 2.5361667 0.86092973
-1.5135911 2.5309126 0.86116385
-1.513818 2.5256608 0.86139894
-1.5140438 2.5204108 0.86163402
-1.5142701 2.5151606 0.86186838
-1.5457177 2.5090268 0.89446044
-1.5458796 2.5038548 0.894629
-1.5460424 2.4986827 0.89479709
-1.5462039 2.4935117 0.89496517
-1.5463665 2.4883418 0.89513254
-1.5465279 2.4831727 0.89530087
-1.54669 2.4780047 0.89546847
-1.5468528 2.4728367 0.89563751
-1.5163043 2.4679596 0.86397576
-1.51653 2.4627206 0.86421108
-1.5167563 2.4574828 0.86444521
-1.5169828 2.4522457 0.86467957
-1.5172083 2.4470098 0.86491323
-1.5174339 2.4417748 0.86514711
-1.5176594 2.4365408 0.86538053
-1.517885 2.4313087 0.86561418
-1.5181105 2.4260769 0.86584806
-1.5183368 2.4208457 0.86608243
-1.5185618 2.4156168 0.86631536
-1.5187857 2.4103878 0.86654902
-1.5190115 2.4051609 0.86678267
-1.519237 2.3999338 0.86701655
-1.5194626 2.3947089 0.86724997
-1.5196877 2.3894849 0.86748314
-1.5199132 2.3842618 0.86771703
-1.5201378 2.3790388 0.86794972
-1.5203633 2.3738179 0.86818337
-1.5205884 2.368598 0.86841655
-1.520813 2.3633788 0.86864948
-1.5210378 2.3581619 0.86888266
-1.5212626 2.3529449 0.86911559
-1.5214875 2.347729 0.86934853
-1.5217121 2.3425138 0.8695817
-1.5219371 2.337301 0.86981463
-1.522162 2.332088 0.87004781
-1.5223866 2.3268769 0.8702805
-1.5226116 2.321666 0.87051392
-1.5228355 2.316457 0.87074614
-1.5230603 2.3112478 0.87097907
-1.5232849 2.306041 0.87121081
-1.5235097 2.3008349 0.87144375
-1.5237339 2.29563 0.87167597
-1.523869 2.2904189 0.87181687
-1.5210438 2.2849929 0.86888909
-1.5182118 2.279552 0.86595416
-1.5153739 2.2740979 0.86301279
-1.5125277 2.26863 0.86006165
-1.5096745 2.2631469 0.85710502
-1.506813 2.2576511 0.85414004
-1.503835 2.252131 0.85105371
-1.4998345 2.246505 0.84690714
-1.49582 2.2408581 0.84274626
-1.4955733 2.235549 0.84249091
-1.4959042 2.2302949 0.842834
-1.4962368 2.2250421 0.84317803
-1.4965677 2.2197909 0.84352112
-1.4968994 2.214541 0.84386492
-1.4972305 2.2092931 0.84420776
-1.4975615 2.204046 0.84455061
-1.4978931 2.198801 0.84489441
-1.498224 2.193557 0.84523726
-1.4985549 2.1883161 0.84558034
-1.4988854 2.1830752 0.84592271
-1.4992163 2.1778362 0.84626555
-1.4995465 2.1725991 0.84660816
-1.4998767 2.1673632 0.84695029
-1.5002074 2.1621292 0.84729338
-1.5005369 2.1568961 0.84763527
-1.5008671 2.1516652 0.84797716
-1.5011973 2.1464353 0.84831977
-1.5015275 2.1412072 0.84866214
-1.501857 2.1359811 0.84900379
-1.502187 2.1307561 0.84934473
-1.5025163 2.1255331 0.84968615
-1.5028465 2.1203113 0.85002875
-1.5030925 2.1150782 0.85028338
-1.503319 2.1098433 0.85051775
-1.5035436 2.1046102 0.85075045
-1.5037694 2.0993772 0.85098577
-1.470156 2.5537786 0.82379317
-1.4967098 2.5472507 0.85122442
-1.5121658 2.5413187 0.86719084
-1.5143437 2.5359917 0.86944103
-1.51457 2.5307486 0.86967421
-1.5147958 2.5255077 0.86990786
-1.5150211 2.5202668 0.87014008
-1.5152473 2.5150266 0.8703742
-1.5451558 2.5089488 0.90127063
-1.5453174 2.5037827 0.90143895
-1.5454791 2.4986176 0.90160584
-1.5456414 2.4934537 0.90177321
-1.5458028 2.4882898 0.90194011
-1.5459652 2.4831278 0.90210748
-1.5461266 2.4779658 0.90227437
-1.546289 2.4728048 0.90244222
-1.5172768 2.4679186 0.87247038
-1.5175025 2.4626896 0.87270403
-1.5177271 2.4574628 0.87293577
-1.5179527 2.4522357 0.87316942
-1.518178 2.4470098 0.8734014
-1.5184021 2.4417849 0.87363386
-1.5186274 2.4365618 0.87386608
-1.5188522 2.4313388 0.87409902
-1.519078 2.4261179 0.87433147
-1.5193026 2.4208968 0.87456465
-1.5195282 2.4156778 0.87479687
-1.5197527 2.4104598 0.87502837
-1.5199776 2.4052417 0.87526155
-1.5202022 2.4000258 0.87549305
-1.5204268 2.3948109 0.87572455
-1.5206509 2.3895969 0.87595701
-1.5208762 2.3843839 0.87618923
-1.5211005 2.3791718 0.87642145
-1.5213251 2.373961 0.87665319
-1.5215497 2.3687508 0.87688494
-1.5217738 2.3635418 0.8771174
-1.5219984 2.3583348 0.8773489
-1.5222232 2.353128 0.8775804
-1.5224471 2.3479228 0.87781286
-1.5226717 2.3427179 0.87804437
-1.5228958 2.3375139 0.87827539
-1.5230846 2.33231 0.87847042
-1.5232477 2.3271048 0.87863994
-1.523411 2.3219008 0.87880802
-1.5235748 2.3166978 0.87897706
-1.5237377 2.311496 0.87914515
-1.5239003 2.306294 0.87931395
-1.5240641 2.3010929 0.87948275
-1.5242269 2.295893 0.87965083
-1.5243902 2.290694 0.87981915
-1.5222239 2.2853251 0.87758255
-1.5194383 2.2798989 0.8747046
-1.516607 2.274456 0.8717792
-1.5137689 2.2690001 0.86884689
-1.5109227 2.2635291 0.86590743
-1.508069 2.258045 0.86295962
-1.505208 2.2525461 0.86000443
-1.5023403 2.2470331 0.85704207
-1.4994655 2.2415061 0.85407114
-1.4988506 2.2361791 0.85343623
-1.4990761 2.2309301 0.85367012
-1.4993024 2.225682 0.85390282
-1.4995279 2.2204351 0.85413647
-1.4997549 2.2151899 0.85436988
-1.4999804 2.209945 0.85460353
-1.5002067 2.2047009 0.85483646
-1.5004323 2.1994591 0.85507011
-1.5006578 2.1942172 0.85530376
-1.5008841 2.188977 0.85553694
-1.5011096 2.183738 0.85577059
-1.5013359 2.1784992 0.85600352
-1.5015614 2.1732621 0.85623693
-1.5017867 2.1680262 0.85646915
-1.5020125 2.162791 0.8567028
-1.502238 2.157557 0.85693502
-1.5024636 2.1523242 0.85716891
-1.5026891 2.1470921 0.85740113
-1.5029144 2.1418612 0.85763478
-1.50314 2.1366313 0.857867
-1.5033638 2.131402 0.85809922
-1.5035901 2.1261742 0.85833216
-1.5038152 2.1209481 0.85856533
-1.5040405 2.1157222 0.85879755
-1.504266 2.1104972 0.85902977
-1.5044906 2.1052742 0.85926294
-1.5047162 2.1000521 0.85949516
-1.4803348 2.5531375 0.84189653
-1.4992433 2.5469856 0.86136675
-1.5132697 2.5411286 0.87580848
-1.5153189 2.5358176 0.87791824
-1.5155444 2.5305858 0.87815046
-1.5157692 2.5253537 0.87838221
-1.5159945 2.5201237 0.87861419
-1.5162201 2.5148947 0.87884665
-1.5445948 2.5088706 0.90806437
-1.5447569 2.5037117 0.90823054
-1.5449183 2.4985528 0.9083972
-1.5450804 2.4933946 0.90856338
-1.5452418 2.4882388 0.90873027
-1.5454035 2.4830818 0.90889716
-1.5455658 2.4779267 0.9090631
-1.5457273 2.4727716 0.90922999
-1.5182443 2.4678788 0.88093185
-1.5184267 2.4626598 0.88111877
-1.5185907 2.4574428 0.88128757
-1.5187542 2.4522257 0.88145638
-1.5189183 2.4470098 0.88162518
-1.5190811 2.4417949 0.8817935
-1.5192442 2.4365797 0.88196158
-1.5194082 2.4313667 0.88213038
-1.5195718 2.4261539 0.88229775
-1.5197356 2.4209418 0.88246655
-1.5198994 2.4157307 0.88263535
-1.5200624 2.4105198 0.88280344
-1.5202255 2.4053099 0.88297153
-1.5203893 2.4001007 0.88314033
-1.5205522 2.3948929 0.88330841
-1.520716 2.3896859 0.88347578
-1.5208793 2.3844788 0.8836441
-1.5210431 2.3792729 0.8838129
-1.5212059 2.3740678 0.88398099
-1.5213692 2.3688629 0.88414931
-1.5215323 2.3636599 0.8843174
-1.5216951 2.3584569 0.88448548
-1.5218589 2.3532548 0.88465309
-1.5220227 2.348053 0.88482165
-1.5221851 2.3428528 0.88498926
-1.5223489 2.3376529 0.88515806
-1.5225112 2.332454 0.88532543
-1.5226748 2.327256 0.8854928
-1.5228376 2.322058 0.88566089
-1.523001 2.3168619 0.88582897
-1.523164 2.311666 0.8859973
-1.5233262 2.3064699 0.8861649
-1.5234892 2.301276 0.88633156
-1.5236521 2.296082 0.88649988
-1.5238154 2.29089 0.88666797
-1.5218182 2.2855401 0.88461113
-1.5195286 2.280158 0.88225389
-1.5172329 2.274766 0.8798902
-1.5149338 2.269362 0.87752247
-1.5121653 2.2639091 0.87467194
-1.5093198 2.2584369 0.87174249
-1.5064662 2.25295 0.86880374
-1.5036058 2.2474489 0.86585903
-1.5007381 2.2419341 0.86290598
-1.4998076 2.236588 0.86194754
-1.5000329 2.231349 0.86217976
-1.5002584 2.2261121 0.86241198
-1.500483 2.220875 0.86264372
-1.5007093 2.2156391 0.86287665
-1.5009346 2.2104051 0.86310863
-1.5011601 2.2051711 0.86334109
-1.5013855 2.199939 0.86357188
-1.501611 2.1947081 0.8638041
-1.5018363 2.189477 0.86403632
-1.5020611 2.184248 0.86426806
-1.5022864 2.1790202 0.86450028
-1.5025113 2.1737931 0.86473203
-1.5027359 2.1685662 0.86496353
-1.5029619 2.163341 0.86519504
-1.5031865 2.1581182 0.86542654
-1.503412 2.1528952 0.865659
-1.5036359 2.1476731 0.86588979
-1.5038612 2.1424522 0.86612201
-1.5040853 2.1372321 0.86635303
-1.5043106 2.1320131 0.86658406
-1.5045352 2.1267962 0.86681557
-1.50476 2.1215792 0.86704731
-1.5049846 2.1163642 0.86727881
-1.5052085 2.1111493 0.8675096
-1.5054333 2.1059361 0.86774135
-1.5056586 2.1007233 0.86797214
-1.4848793 2.5527637 0.85412693
-1.5003784 2.5467837 0.87003255
-1.5139887 2.5409567 0.88400126
-1.5155671 2.5356736 0.88562226
-1.5157316 2.5304527 0.88579011
-1.5158944 2.5252316 0.88595843
-1.5160589 2.5200107 0.88612628
-1.516222 2.5147917 0.8862946
-1.5440354 2.5087926 0.91483998
-1.5441978 2.5036407 0.91500616
-1.544359 2.4984887 0.91517162
-1.5445211 2.4933367 0.9153378
-1.5446827 2.4881868 0.91550326
-1.5448442 2.4830368 0.91567016
-1.5450053 2.4778876 0.91583538
-1.5451388 2.4727397 0.91597223
-1.517695 2.4678516 0.88780594
-1.5178595 2.4626398 0.88797402
-1.5180225 2.4574299 0.88814211
-1.5181866 2.4522188 0.88830948
-1.5183494 2.4470098 0.8884778
-1.518513 2.4418008 0.88864493
-1.518676 2.4365938 0.88881326
-1.5188398 2.4313858 0.88898063
-1.5190027 2.4261799 0.88914895
-1.5191665 2.4209747 0.88931608
-1.5193303 2.4157698 0.88948369
-1.5194924 2.4105659 0.88965106
-1.5196569 2.4053628 0.88981915
-1.5198193 2.4001598 0.88998652
-1.5199831 2.3949578 0.89015388
-1.5201468 2.3897569 0.89032149
-1.520309 2.3845568 0.89048886
-1.5204728 2.3793578 0.89065623
-1.5206349 2.3741589 0.89082384
-1.5207984 2.3689609 0.89099121
-1.5209615 2.3637638 0.89115787
-1.5211246 2.358568 0.89132619
-1.5212882 2.3533719 0.89149356
-1.5214508 2.348177 0.89166093
-1.5216136 2.342983 0.89182782
-1.5217772 2.33779 0.89199519
-1.5219398 2.332598 0.8921628
-1.5221033 2.3274059 0.89233017
-1.5222654 2.3222148 0.89249754
-1.5224285 2.3170249 0.89266443
-1.5225914 2.3118351 0.89283109
-1.5227537 2.3066471 0.89299846
-1.5229166 2.3014591 0.89316535
-1.5230801 2.2962708 0.89333272
-1.5232425 2.291085 0.89350033
-1.5214145 2.285754 0.89162302
-1.5191274 2.28038 0.88927555
-1.5168347 2.2749951 0.88692355
-1.514538 2.269599 0.88456583
-1.5122352 2.2641921 0.88220286
-1.5099292 2.2587731 0.87983561
-1.507618 2.2533431 0.87746429
-1.5048666 2.2478631 0.87463999
-1.5020061 2.2423601 0.87170434
-1.5007601 2.2369959 0.87042522
-1.5009854 2.2317669 0.87065625
-1.5012095 2.2265391 0.87088704
-1.5014353 2.221313 0.87111855
-1.5016608 2.2160871 0.87134933
-1.5018847 2.2108631 0.87158036
-1.5021093 2.2056401 0.87181044
-1.5023344 2.200417 0.87204123
-1.5025599 2.1951962 0.87227225
-1.5027845 2.1899762 0.87250257
-1.5030084 2.184756 0.87273335
-1.5032334 2.179538 0.87296414
-1.5034583 2.1743212 0.87319469
-1.5036829 2.1691051 0.87342453
-1.5039067 2.1638901 0.87365556
-1.5041311 2.1586761 0.87388587
-1.5043557 2.1534631 0.87411594
-1.5045803 2.1482522 0.87434626
-1.5048051 2.1430411 0.87457657
-1.5050294 2.1378312 0.87480664
-1.5051949 2.1326141 0.87497687
-1.5053577 2.1273983 0.87514496
-1.5055215 2.1221821 0.87531233
-1.5056853 2.1169672 0.87548113
-1.5058489 2.1117532 0.8756485
-1.5060127 2.1065392 0.8758173
-1.5061758 2.1013272 0.87598419
-1.501509 2.5465827 0.87866521
-1.5133431 2.5408416 0.89077115
-1.5150034 2.5355628 0.89246988
-1.5151672 2.5303476 0.89263749
-1.515331 2.5251327 0.89280486
-1.5154946 2.5199196 0.89297223
-1.5156581 2.5147066 0.8931396
-1.542681 2.5087378 0.920784
-1.5427999 2.5035908 0.92090487
-1.5429194 2.4984448 0.92102718
-1.5430386 2.4932988 0.92114925
-1.5431578 2.4881527 0.92127156
-1.5432763 2.4830077 0.92139339
-1.5433965 2.4778638 0.92151499
-1.5435157 2.4727197 0.9216373
-1.5171294 2.4678257 0.89464569
-1.5172923 2.4626207 0.89481235
-1.5174558 2.4574158 0.89497972
-1.5176189 2.4522128 0.89514637
-1.5177824 2.4470098 0.89531374
-1.5179462 2.4418077 0.89548111
-1.5181093 2.4366069 0.895648
-1.5182722 2.4314058 0.89581466
-1.518435 2.4262059 0.89598131
-1.5185988 2.4210069 0.89614868
-1.5187616 2.4158089 0.89631557
-1.5189254 2.4106109 0.89648294
-1.5190883 2.4054148 0.89664841
-1.5192521 2.400219 0.89681578
-1.5194149 2.3950238 0.89698243
-1.519578 2.3898289 0.89714909
-1.5197408 2.384635 0.89731598
-1.5199039 2.3794429 0.89748263
-1.5200665 2.3742499 0.89764929
-1.5202293 2.3690588 0.89781618
-1.5203924 2.363868 0.89798284
-1.5205553 2.3586788 0.89814973
-1.5207181 2.3534899 0.89831638
-1.5208805 2.3483009 0.89848232
-1.521044 2.3431139 0.89864969
-1.5212071 2.3379269 0.89881659
-1.5213692 2.332741 0.89898252
-1.5215323 2.3275559 0.89914942
-1.5216951 2.322371 0.89931631
-1.5218573 2.3171868 0.89948225
-1.5220203 2.3120041 0.89964914
-1.5221829 2.3068221 0.89981413
-1.5223463 2.301641 0.89998102
-1.5225081 2.2964599 0.9001472
-1.522671 2.29128 0.90031385
-1.5210111 2.2859681 0.8986156
-1.5187263 2.280602 0.89627957
-1.5164368 2.275224 0.89393663
-1.5141423 2.269835 0.89158964
-1.5118434 2.2644351 0.88923764
-1.5095391 2.2590241 0.88688111
-1.5072315 2.253602 0.88451934
-1.5049176 2.248168 0.88215232
-1.5025985 2.242723 0.87978077
-1.5013371 2.2373672 0.87848997
-1.5015008 2.232141 0.87865734
-1.5016654 2.226917 0.87882543
-1.5018296 2.221693 0.87899327
-1.501992 2.21647 0.87916088
-1.5021565 2.2112482 0.87932897
-1.5023201 2.206027 0.87949634
-1.5024838 2.2008061 0.87966394
-1.5026484 2.1955862 0.87983155
-1.5028112 2.1903672 0.87999845
-1.5029759 2.1851482 0.88016653
-1.5031395 2.1799312 0.8803339
-1.5033031 2.1747141 0.88050127
-1.5034668 2.1694982 0.88066864
-1.5036306 2.1642821 0.88083625
-1.5037942 2.1590681 0.88100362
-1.503958 2.1538541 0.88117099
-1.5041218 2.1486411 0.88133836
-1.5042851 2.1434293 0.88150549
-1.5044491 2.1382172 0.88167286
-1.504612 2.133007 0.88184118
-1.5047758 2.1277971 0.88200855
-1.5049396 2.1225872 0.88217592
-1.5051024 2.1173792 0.88234258
-1.5052655 2.1121712 0.88250947
-1.505429 2.1069641 0.88267684
-1.5055928 2.1017582 0.88284421
-1.5017259 2.5464227 0.88633609
-1.5126989 2.5407276 0.89752388
-1.5144413 2.5354517 0.89930081
-1.5146041 2.5302427 0.89946747
-1.5147672 2.5250356 0.89963436
-1.5149314 2.5198276 0.89980078
-1.5150943 2.5146217 0.89996743
-1.5410607 2.5086908 0.92644358
-1.5411799 2.5035477 0.92656469
-1.5412986 2.4984047 0.92668629
-1.5414186 2.4932628 0.92680788
-1.5415378 2.4881217 0.92693019
-1.5416563 2.4829807 0.92705059
-1.5417755 2.4778397 0.92717266
-1.5418947 2.4727008 0.92729354
-1.5165651 2.4677997 0.90146637
-1.5167279 2.4626007 0.90163326
-1.5168915 2.4574027 0.9017992
-1.5170543 2.4522059 0.90196609
-1.5172179 2.4470098 0.90213203
-1.5173807 2.4418137 0.90229869
-1.5175438 2.4366198 0.90246391
-1.5177066 2.4314258 0.90263081
-1.5178688 2.4262319 0.90279698
-1.518033 2.4210398 0.90296364
-1.5181952 2.4158478 0.90312982
-1.5183587 2.4106569 0.90329552
-1.5185218 2.4054668 0.90346217
-1.5186853 2.4002769 0.90362835
-1.5188475 2.3950889 0.90379453
-1.5190103 2.3899009 0.90395975
-1.5191731 2.3847139 0.90412641
-1.5193367 2.3795269 0.90429235
-1.5194991 2.3743408 0.90445852
-1.5196617 2.3691568 0.90462399
-1.5198247 2.3639719 0.90479064
-1.5199883 2.358789 0.90495658
-1.5201504 2.353606 0.90512276
-1.5203125 2.3484249 0.9052875
-1.5204756 2.3432438 0.9054544
-1.5206389 2.338063 0.9056201
-1.5208001 2.3328838 0.90578556
-1.5209632 2.3277049 0.90595102
-1.521126 2.3225269 0.90611768
-1.5212882 2.3173499 0.90628219
-1.5214505 2.3121729 0.90644836
-1.5216138 2.3069971 0.90661454
-1.521776 2.3018219 0.90678048
-1.5219328 2.296648 0.9069407
-1.5220528 2.291471 0.90706229
-1.5206094 2.2861819 0.90559173
-1.5183268 2.280823 0.90326357
-1.5160396 2.2754521 0.90093184
-1.5137484 2.270071 0.89859557
-1.5114524 2.264678 0.89625382
-1.50915 2.259275 0.89390707
-1.5068448 2.25386 0.89155602
-1.5045342 2.2484341 0.8891995
-1.502218 2.242996 0.88683844
-1.5007589 2.237628 0.88535047
-1.5009227 2.23241 0.88551784
-1.5010865 2.2271919 0.88568544
-1.5012507 2.2219741 0.88585186
-1.5014145 2.216758 0.88601923
-1.5015781 2.2115421 0.88618517
-1.5017416 2.206327 0.88635278
-1.5019054 2.201113 0.88652015
-1.5020697 2.1959002 0.88668656
-1.5022326 2.1906872 0.88685322
-1.5023963 2.1854751 0.88702059
-1.5025601 2.180264 0.88718677
-1.5027237 2.1750531 0.88735414
-1.5028868 2.1698442 0.88752103
-1.5030508 2.1646352 0.88768744
-1.5032139 2.1594272 0.8878541
-1.5033782 2.1542201 0.88802075
-1.5035412 2.1490133 0.88818765
-1.503705 2.1438072 0.88835502
-1.5038676 2.1386023 0.88852024
-1.5040312 2.1333981 0.88868761
-1.504195 2.1281943 0.88885355
-1.5043578 2.1229923 0.88902044
-1.5045207 2.1177902 0.8891871
-1.5046852 2.1125891 0.88935351
-1.5048482 2.1073883 0.88952041
-1.5050116 2.1021881 0.88968658
-1.5051746 2.0969892 0.88985324
-1.5010934 2.5463016 0.89311981
-1.5120552 2.5406137 0.90426016
-1.5138795 2.5353408 0.90611506
-1.5140433 2.5301387 0.90628076
-1.5142062 2.5249376 0.90644622
-1.5143695 2.5197368 0.9066124
-1.5145333 2.5145378 0.90677834
-1.5394421 2.5086427 0.93209434
-1.539562 2.5035038 0.93221569
-1.5396812 2.4983656 0.93233681
-1.5398002 2.4932277 0.93245745
-1.5399187 2.4880898 0.93257904
-1.5400379 2.4829528 0.93269992
-1.5401578 2.4778168 0.93282127
-1.5402763 2.4726808 0.93294191
-1.5160019 2.4677737 0.90827179
-1.5161648 2.4625819 0.90843725
-1.5163283 2.4573898 0.90860295
-1.5164909 2.4521997 0.90876842
-1.5166538 2.4470098 0.90893364
-1.5168166 2.4418209 0.90909886
-1.5169799 2.4366329 0.90926504
-1.5171423 2.4314449 0.90943098
-1.5172918 2.4262578 0.90958261
-1.5174117 2.4210718 0.90970421
-1.5175319 2.4158859 0.90982723
-1.5176525 2.4106998 0.90994954
-1.5177734 2.405515 0.91007137
-1.5178926 2.4003308 0.91019392
-1.5180142 2.3951468 0.91031671
-1.5181341 2.3899639 0.9104383
-1.518254 2.3847809 0.91056108
-1.5183747 2.3795989 0.91068339
-1.5184956 2.3744178 0.91080546
-1.5186155 2.3692369 0.91092682
-1.5187347 2.3640568 0.91104913
-1.5188553 2.3588769 0.91117144
-1.518976 2.353698 0.91129375
-1.5190961 2.3485188 0.91141653
-1.5192161 2.3433409 0.91153812
-1.5193367 2.3381629 0.91166019
-1.5194559 2.3329859 0.9117825
-1.5195758 2.32781 0.91190386
-1.519696 2.322634 0.91202569
-1.5198169 2.3174589 0.91214919
-1.5199361 2.312284 0.91227031
-1.520056 2.3071101 0.91239166
-1.5201766 2.3019359 0.91251373
-1.5202968 2.2967629 0.91263676
-1.5204167 2.29159 0.91275835
-1.5192206 2.2863231 0.91154337
-1.5172203 2.2809901 0.90950942
-1.5152156 2.2756469 0.90747237
-1.513207 2.270294 0.90543056
-1.5110612 2.2649209 0.90325046
-1.5087624 2.2595241 0.90091419
-1.50646 2.254117 0.89857364
-1.5041518 2.2486989 0.89622808
-1.5018387 2.243269 0.89387727
-1.5001829 2.2378891 0.89219427
-1.5003467 2.232677 0.89236021
-1.5005102 2.2274661 0.89252758
-1.500674 2.222255 0.89269376
-1.5008376 2.2170451 0.8928597
-1.5010011 2.2118361 0.89302564
-1.501164 2.2066271 0.89319253
-1.5013285 2.2014191 0.89335918
-1.5014911 2.1962121 0.89352441
-1.5016553 2.1910062 0.89369106
-1.5018184 2.185801 0.89385629
-1.5019813 2.1805961 0.89402318
-1.5021455 2.1753922 0.8941896
-1.5023093 2.1701891 0.89435577
-1.5024726 2.1649871 0.89452171
-1.5026355 2.1597853 0.89468694
-1.5027993 2.1545842 0.89485312
-1.5029621 2.1493843 0.89501977
-1.5031254 2.1441851 0.89518571
-1.5032885 2.1389861 0.89535093
-1.5034521 2.1337881 0.89551711
-1.5036147 2.1285913 0.89568257
-1.5037785 2.1233952 0.89584827
-1.5039406 2.1181991 0.89601445
-1.5041041 2.1130052 0.89618039
-1.5042677 2.1078112 0.89634657
-1.5044305 2.1026173 0.89651179
-1.5045934 2.0974252 0.89667702
-1.5004623 2.5461807 0.89988613
-1.5114143 2.5404997 0.91098046
-1.5131285 2.5352378 0.91271663
-1.5132492 2.5300436 0.9128387
-1.5133693 2.5248497 0.91296196
-1.51349 2.5196567 0.91308379
-1.5136108 2.5144637 0.9132061
-1.5378275 2.5085957 0.93773651
-1.537946 2.5034606 0.93785667
-1.5380652 2.4983258 0.93797755
-1.5381844 2.4931917 0.93809843
-1.5383041 2.4880588 0.93822002
-1.5384226 2.4829257 0.93834019
-1.5385418 2.4777927 0.93846107
-1.538661 2.4726608 0.93858194
-1.5146954 2.4677548 0.91430426
-1.5148153 2.4625678 0.91442609
-1.5149362 2.4573808 0.91454816
-1.5150568 2.4521947 0.91466999
-1.5151768 2.4470098 0.91479182
-1.5152974 2.4418249 0.91491389
-1.5154188 2.4366407 0.91503692
-1.5155382 2.4314568 0.91515756
-1.5156589 2.4262738 0.91527987
-1.5157788 2.4210908 0.91540265
-1.5158987 2.4159088 0.91552448
-1.5160186 2.410728 0.91564584
-1.5161395 2.4055469 0.91576791
-1.5162604 2.4003668 0.91589022
-1.5163801 2.3951869 0.91601181
-1.5165007 2.390008 0.91613388
-1.5166206 2.3848288 0.91625547
-1.5167408 2.3796508 0.91637683
-1.5168607 2.3744729 0.91649842
-1.5169821 2.369297 0.91662121
-1.517101 2.36412 0.91674232
-1.5172217 2.3589439 0.91686416
-1.5173426 2.3537688 0.91698647
-1.5174627 2.348594 0.91710806
-1.5175827 2.34342 0.91722965
-1.5177026 2.3382459 0.91735125
-1.5178223 2.3330729 0.9174726
-1.5179422 2.3279009 0.91759396
-1.5180631 2.3227289 0.91771626
-1.518183 2.3175581 0.91783786
-1.5183029 2.312387 0.91795945
-1.5184228 2.3072169 0.91808081
-1.5185425 2.302047 0.9182024
-1.5186634 2.2968781 0.91832447
-1.5187833 2.2917089 0.91844606
-1.5177076 2.2864549 0.91735554
-1.5157068 2.281126 0.91532946
-1.5137022 2.2757871 0.91329885
-1.5116944 2.2704391 0.91126418
-1.5096824 2.2650809 0.90922618
-1.5076671 2.2597141 0.90718508
-1.5056481 2.2543371 0.90514016
-1.5036259 2.24895 0.90309167
-1.5014596 2.24354 0.90089703
-1.4996083 2.2381501 0.89902115
-1.4997711 2.232944 0.89918661
-1.4999349 2.2277391 0.89935231
-1.5000982 2.2225351 0.89951825
-1.5002613 2.2173312 0.89968371
-1.5004261 2.2121282 0.89984941
-1.5005889 2.2069261 0.90001488
-1.500752 2.201725 0.90018034
-1.5009153 2.1965251 0.90034628
-1.5010476 2.1913211 0.90047956
-1.5011692 2.1861172 0.90060234
-1.5012898 2.1809142 0.90072441
-1.5014107 2.1757112 0.90084815
-1.5015314 2.1705091 0.90097022
-1.501652 2.165307 0.90109229
-1.5017729 2.1601062 0.9012146
-1.5018935 2.1549051 0.90133691
-1.5020149 2.1497052 0.90145969
-1.5021355 2.1445053 0.90158176
-1.5022554 2.1393061 0.90170312
-1.5023773 2.1341081 0.90182614
-1.5024979 2.1289103 0.90194821
-1.5026176 2.1237133 0.90207005
-1.502739 2.1185162 0.90219259
-1.5028591 2.1133201 0.90231562
-1.50298 2.1081252 0.90243769
-1.5031006 2.1029303 0.90255976
-1.5032213 2.0977352 0.90268207
-1.4998329 2.5460596 0.90663695
-1.5096874 2.5404327 0.91658735
-1.5114977 2.5351708 0.91841435
-1.5116181 2.5299797 0.91853642
-1.5117388 2.5247898 0.91865873
-1.5118597 2.5196006 0.91877937
-1.5119796 2.5144117 0.91890073
-1.5362144 2.5085487 0.94337082
-1.5363336 2.5034177 0.94349027
-1.5364521 2.4982867 0.94361043
-1.536571 2.4931567 0.94373131
-1.536691 2.4880269 0.94385147
-1.5368094 2.4828978 0.94397163
-1.5369289 2.4777689 0.9440918
-1.5370476 2.4726417 0.9442122
-1.5130646 2.4677389 0.91999722
-1.5131848 2.4625559 0.92011857
-1.5133054 2.4573729 0.92023921
-1.5134261 2.4521909 0.92036152
-1.5135467 2.4470098 0.92048359
-1.5136657 2.4418287 0.92060447
-1.5137873 2.4366488 0.92072582
-1.5139081 2.4314687 0.92084813
-1.5140281 2.4262898 0.92096949
-1.5141478 2.4211109 0.92109132
-1.5142684 2.4159329 0.92121196
-1.5143883 2.4107559 0.92133331
-1.5145092 2.4055789 0.92145562
-1.5146296 2.4004018 0.9215765
-1.5147495 2.395227 0.92169785
-1.5148702 2.3900509 0.92182016
-1.5149901 2.384877 0.92194152
-1.5151107 2.3797028 0.92206216
-1.5152307 2.3745289 0.92218399
-1.5153508 2.3693559 0.92230558
-1.5154712 2.3641839 0.92242622
-1.5155911 2.3590119 0.92254782
-1.5157111 2.3538399 0.92266941
-1.5158319 2.34867 0.92279005
-1.5159516 2.3434989 0.92291164
-1.5160716 2.33833 0.92303324
-1.5161922 2.3331609 0.92315531
-1.5163121 2.327992 0.92327547
-1.516432 2.322824 0.92339683
-1.516552 2.317657 0.92351866
-1.5166726 2.31249 0.9236393
-1.5167918 2.3073239 0.92376018
-1.5169122 2.3021579 0.92388248
-1.5170329 2.296993 0.92400312
-1.5171523 2.2918279 0.924124
-1.5161967 2.286586 0.92315912
-1.5141957 2.2812619 0.92113948
-1.5121918 2.275928 0.91911578
-1.5101838 2.2705841 0.91708899
-1.5081728 2.2652311 0.91505814
-1.5061584 2.2598681 0.91302323
-1.5041389 2.2544951 0.91098547
-1.5021174 2.2491131 0.90894341
-1.5000911 2.243721 0.90689826
-1.4983149 2.238342 0.90510368
-1.4984357 2.2331371 0.90522599
-1.4985564 2.2279332 0.9053483
-1.498677 2.2227292 0.90547037
-1.4987979 2.217525 0.90559244
-1.4989192 2.2123222 0.90571404
-1.4990399 2.2071202 0.90583611
-1.4991605 2.2019181 0.90595818
-1.4992812 2.1967173 0.90608048
-1.4994028 2.1915171 0.90620327
-1.4995234 2.1863172 0.90632391
-1.4996448 2.1811171 0.90644693
-1.4997647 2.1759181 0.90656829
-1.4998853 2.1707201 0.9066906
-1.5000069 2.1655221 0.90681338
-1.5001276 2.1603251 0.90693402
-1.5002482 2.1551282 0.90705633
-1.5003688 2.1499321 0.9071784
-1.5004885 2.1447363 0.9073
-1.5006111 2.1395411 0.90742207
-1.5007317 2.1343472 0.90754414
-1.5008516 2.1291533 0.90766573
-1.500972 2.1239603 0.9077878
-1.5010927 2.1187673 0.90790987
-1.5012136 2.1135752 0.90803099
-1.5013351 2.1083832 0.90815377
-1.5014548 2.1031923 0.90827513
-1.5015748 2.0980022 0.90839672
-1.4985189 2.5459697 0.91268015
-1.5078793 2.5403688 0.92210102
-1.5098686 2.5351026 0.92410326
-1.50999 2.5299168 0.92422438
-1.5101099 2.5247307 0.92434621
-1.5102313 2.5195458 0.92446756
-1.5103521 2.5143607 0.92458844
-1.5346043 2.5085018 0.94899559
-1.5347223 2.5033739 0.94911575
-1.5348415 2.4982479 0.9492352
-1.5349605 2.4931207 0.94935489
-1.5350807 2.4879959 0.94947505
-1.5351989 2.4828708 0.94959521
-1.5353179 2.4777458 0.94971466
-1.5354245 2.4726217 0.94982243
-1.511436 2.4677229 0.92567945
-1.5115561 2.4625437 0.92580104
-1.5116775 2.4573648 0.92592239
-1.5117974 2.4521868 0.92604423
-1.5119181 2.4470098 0.92616487
-1.5120378 2.4418328 0.92628622
-1.5121584 2.436657 0.92640734
-1.5122797 2.4314809 0.92652845
-1.5123997 2.4263058 0.92665005
-1.5125203 2.4211309 0.92677069
-1.5126402 2.415957 0.92689228
-1.5127606 2.4107828 0.92701316
-1.5128808 2.4056108 0.92713308
-1.5130014 2.4004378 0.92725539
-1.5131218 2.3952658 0.92737627
-1.5132418 2.390095 0.92749763
-1.5133615 2.3849239 0.92761779
-1.5134814 2.3797538 0.92773938
-1.5136023 2.374584 0.92786002
-1.5137219 2.3694148 0.92798018
-1.5138426 2.3642468 0.92810249
-1.5139625 2.3590789 0.92822266
-1.5140824 2.3539119 0.92834401
-1.5142031 2.3487449 0.92846465
-1.5143237 2.3435779 0.92858577
-1.5144427 2.338413 0.92870641
-1.514564 2.3332479 0.92882776
-1.514684 2.328083 0.92894793
-1.5148036 2.3229189 0.92906952
-1.5149245 2.3177559 0.92919016
-1.5150437 2.312593 0.92931104
-1.5151641 2.30743 0.92943215
-1.5152841 2.302269 0.92955208
-1.515404 2.297107 0.92967367
-1.5155237 2.2919469 0.9297936
-1.5146878 2.2867181 0.92895269
-1.5126874 2.2813981 0.92693996
-1.510684 2.276068 0.92492342
-1.5086768 2.2707291 0.92290378
-1.5066655 2.2653801 0.92087936
-1.5046513 2.2600222 0.91885233
-1.5026329 2.2546539 0.91682029
-1.5006106 2.2492762 0.91478539
-1.4985847 2.2438881 0.91274738
-1.4966717 2.238502 0.91082096
-1.4967921 2.2333012 0.91094303
-1.4969134 2.2281001 0.91106439
-1.4970336 2.2229002 0.91118622
-1.4971557 2.2177012 0.91130829
-1.4972756 2.212502 0.91142964
-1.4973969 2.207303 0.911551
-1.4975173 2.202106 0.91167331
-1.4976389 2.1969082 0.91179466
-1.4977598 2.1917121 0.91191697
-1.4978802 2.186516 0.91203761
-1.4980009 2.1813202 0.91215968
-1.4981222 2.176125 0.91228104
-1.4982424 2.1709311 0.91240263
-1.4983635 2.1657372 0.91252398
-1.4984844 2.1605442 0.91264629
-1.498605 2.1553512 0.91276693
-1.4987247 2.1501591 0.91288853
-1.4988461 2.1449671 0.91300988
-1.4989669 2.1397762 0.91313219
-1.4990873 2.1345863 0.91325307
-1.4992087 2.1293962 0.91337419
-1.4993286 2.1242063 0.91349578
-1.49945 2.1190183 0.91361737
-1.4995708 2.1138291 0.91373944
-1.4996912 2.1086423 0.91386008
-1.4998112 2.1034553 0.91398191
-1.4999318 2.0982683 0.91410255
-1.5000525 2.0930822 0.91422462
-1.5060749 2.5403047 0.92760706
-1.5082443 2.5350356 0.92978406
-1.5083647 2.5298526 0.9299047
-1.5084846 2.5246708 0.93002486
-1.508605 2.5194898 0.9301455
-1.5087259 2.5143087 0.93026638
-1.5323713 2.5084717 0.95398569
-1.5324574 2.5033479 0.95407248
-1.5325432 2.4982247 0.95415878
-1.5326285 2.4931009 0.95424366
-1.5327151 2.4879777 0.95433044
-1.5327997 2.4828558 0.95441604
-1.5328863 2.4777339 0.95450282
-1.5329723 2.4726119 0.95458817
-1.5098095 2.4677067 0.931355
-1.5099304 2.4625318 0.93147564
-1.5100508 2.4573579 0.93159628
-1.5101721 2.4521828 0.93171763
-1.5102918 2.4470098 0.9318378
-1.5104125 2.4418368 0.93195868
-1.5105329 2.4366648 0.93207932
-1.5106537 2.4314928 0.93220019
-1.5107729 2.4263217 0.93232083
-1.5108933 2.4211509 0.93244171
-1.511014 2.4159808 0.93256259
-1.5111344 2.4108109 0.93268323
-1.5112543 2.4056418 0.93280339
-1.511375 2.4004738 0.93292403
-1.5114956 2.3953059 0.93304515
-1.5116153 2.3901379 0.93316507
-1.5117359 2.3849719 0.93328595
-1.5118551 2.3798048 0.93340683
-1.5119755 2.37464 0.93352771
-1.5120964 2.3694749 0.93364835
-1.5122168 2.36431 0.93376899
-1.5123367 2.3591459 0.93388915
-1.5124571 2.3539829 0.93400979
-1.5125778 2.34882 0.93413067
-1.5126967 2.343658 0.93425012
-1.5128174 2.338496 0.93437099
-1.5129373 2.3333349 0.93449092
-1.513057 2.3281739 0.93461275
-1.5131769 2.323014 0.93473268
-1.5132973 2.3178539 0.93485355
-1.5134175 2.312695 0.93497348
-1.5135381 2.3075371 0.93509436
-1.5136578 2.3023789 0.93521452
-1.5137582 2.29722 0.93531561
-1.5138445 2.2920611 0.93540096
-1.5131629 2.2868471 0.93471813
-1.5111818 2.281533 0.93273091
-1.5091791 2.2762079 0.93072152
-1.5071716 2.270874 0.92870808
-1.505161 2.2655292 0.92669201
-1.5031471 2.2601762 0.9246707
-1.5011287 2.254812 0.92264676
-1.4991066 2.249439 0.9206183
-1.4970813 2.244056 0.91858745
-1.4950521 2.2386632 0.91655183
-1.4951515 2.233464 0.91665077
-1.4952729 2.2282672 0.91677213
-1.4953935 2.2230711 0.91689324
-1.4955142 2.2178762 0.91701508
-1.4956346 2.2126811 0.91713595
-1.4957559 2.2074862 0.91725731
-1.4958773 2.2022922 0.9173789
-1.4959981 2.1970992 0.91749954
-1.4961188 2.1919072 0.91762161
-1.4962392 2.1867142 0.91774249
-1.4963605 2.1815231 0.91786408
-1.4964809 2.1763322 0.91798472
-1.4966018 2.1711411 0.91810536
-1.4967234 2.1659513 0.91822696
-1.4968431 2.1607623 0.91834855
-1.4969637 2.1555731 0.91846919
-1.4970849 2.1503851 0.91859055
-1.4972057 2.1451972 0.91871142
-1.4973261 2.1400101 0.91883206
-1.4974468 2.1348243 0.91895294
-1.4975674 2.1296382 0.91907501
-1.4976878 2.1244521 0.91919565
-1.4978087 2.1192682 0.91931653
-1.4979291 2.1140833 0.91943741
-1.4980505 2.1088991 0.91955876
-1.4981709 2.1037164 0.9196794
-1.498291 2.0985343 0.919801
-1.4984117 2.0933523 0.91992188
-1.5042708 2.5402408 0.93310499
-1.5066199 2.5349677 0.93545461
-1.5067406 2.5297897 0.93557549
-1.5068617 2.5246117 0.93569565
-1.5069818 2.5194347 0.93581557
-1.5071023 2.5142577 0.93593645
-1.5299196 2.5084488 0.95874929
-1.5300052 2.5033267 0.9588356
-1.5300915 2.4982047 0.95892096
-1.5301771 2.4930837 0.95900726
-1.5302627 2.4879627 0.95909333
-1.530349 2.4828417 0.95917892
-1.5304346 2.4777217 0.95926523
-1.53052 2.4726028 0.95934987
-1.5081873 2.4676919 0.93702173
-1.5083077 2.4625199 0.93714142
-1.5084276 2.4573498 0.93726134
-1.5085483 2.4521799 0.93738222
-1.5086687 2.4470098 0.93750286
-1.5087893 2.4418409 0.9376235
-1.508909 2.4366729 0.93774366
-1.5090296 2.431505 0.93786311
-1.5091207 2.4263368 0.93795514
-1.5092077 2.4211698 0.93804145
-1.509294 2.416003 0.93812799
-1.5093806 2.4108369 0.93821502
-1.5094676 2.4056709 0.93830109
-1.5095537 2.4005048 0.93838787
-1.5096405 2.39534 0.93847489
-1.5097282 2.3901749 0.93856168
-1.5098135 2.385011 0.93864751
-1.5098999 2.379847 0.93873453
-1.5099871 2.3746829 0.93882084
-1.5100737 2.3695199 0.93890762
-1.510159 2.364357 0.93899369
-1.510246 2.359195 0.93907976
-1.5103323 2.354033 0.93916655
-1.5104194 2.348871 0.93925261
-1.5105059 2.3437099 0.9393394
-1.5105932 2.3385489 0.9394269
-1.5106785 2.333389 0.93951178
-1.5107656 2.328229 0.93959928
-1.5108511 2.3230691 0.93968558
-1.5109391 2.31791 0.93977213
-1.5110247 2.3127511 0.93985844
-1.511111 2.3075931 0.93994522
-1.511198 2.3024349 0.94003129
-1.5112846 2.297277 0.94011831
-1.5113702 2.29212 0.94020438
-1.5107813 2.2869151 0.93961477
-1.5089231 2.2816119 0.93775678
-1.5070608 2.2763011 0.9358952
-1.5051968 2.2709811 0.93403125
-1.503329 2.265651 0.93216372
-1.5014579 2.260313 0.93029308
-1.499583 2.254966 0.92841864
-1.4976051 2.2496011 0.92644167
-1.4955807 2.2442231 0.92441773
-1.4935517 2.2388351 0.92238903
-1.4935136 2.2336271 0.92235065
-1.4936345 2.2284341 0.92247128
-1.4937556 2.223242 0.92259264
-1.4938762 2.21805 0.92271352
-1.4939966 2.2128592 0.92283416
-1.4941177 2.207669 0.92295408
-1.4942386 2.2024791 0.92307496
-1.4943597 2.1972902 0.92319632
-1.4944804 2.1921012 0.92331719
-1.4946012 2.1869133 0.92343807
-1.4947217 2.181725 0.92355871
-1.4948289 2.1765361 0.92366576
-1.494916 2.1713462 0.92375326
-1.495003 2.1661551 0.92383933
-1.4950902 2.1609652 0.92392683
-1.4951766 2.1557763 0.92401361
-1.4952638 2.1505871 0.92410111
-1.4953508 2.1453981 0.92418742
-1.4954381 2.1402102 0.92427468
-1.4955242 2.1350222 0.92436147
-1.4956114 2.1298351 0.92444754
-1.4956985 2.1246471 0.92453527
-1.4957857 2.1194613 0.92462254
-1.4958727 2.1142752 0.9247086
-1.495959 2.1090891 0.92479563
-1.4960461 2.1039033 0.92488289
-1.4961326 2.0987182 0.92496991
-1.4962206 2.0935342 0.92505646
-1.5024707 2.5401766 0.93859649
-1.5048268 2.5349078 0.94094443
-1.5049131 2.5297337 0.94103122
-1.5050001 2.5245607 0.94111729
-1.5050867 2.5193877 0.94120407
-1.5051734 2.5142157 0.94129038
-1.5274692 2.5084248 0.96351004
-1.5275555 2.5033047 0.96359539
-1.5276418 2.4981859 0.96368098
-1.5277274 2.4930658 0.96376705
-1.5278137 2.4879467 0.96385264
-1.527899 2.4828289 0.96393752
-1.5279846 2.4777107 0.96402335
-1.5280709 2.4725928 0.96410894
-1.5059536 2.4676809 0.94206882
-1.5060406 2.4625127 0.94215488
-1.5061276 2.4573448 0.94224095
-1.5062139 2.4521768 0.94232798
-1.5063012 2.4470098 0.94241405
-1.5063875 2.4418428 0.94250083
-1.5064745 2.4366767 0.94258666
-1.5065608 2.4315109 0.94267344
-1.5066471 2.4263449 0.94275928
-1.5067341 2.4211798 0.94284678
-1.5068204 2.4160149 0.94293213
-1.5069077 2.4108498 0.9430182
-1.5069938 2.4056859 0.94310498
-1.507081 2.4005229 0.94319105
-1.5071673 2.39536 0.94327784
-1.5072551 2.3901968 0.94336462
-1.5073407 2.3850338 0.94345069
-1.507427 2.3798718 0.94353628
-1.5075133 2.374711 0.94362307
-1.507601 2.369549 0.94370985
-1.5076869 2.3643889 0.94379592
-1.5077739 2.3592279 0.94388223
-1.5078599 2.354068 0.94396758
-1.5079463 2.3489089 0.94405437
-1.5080335 2.343749 0.94414043
-1.5081198 2.3385909 0.94422722
-1.5082061 2.333432 0.94431281
-1.5082924 2.328274 0.9443996
-1.5083795 2.3231161 0.94448566
-1.5084658 2.3179591 0.94457245
-1.5085518 2.3128021 0.94465804
-1.5086391 2.307646 0.94474411
-1.5087256 2.30249 0.94483089
-1.5088124 2.297334 0.94491696
-1.508898 2.2921791 0.94500303
-1.5084004 2.2869821 0.94450736
-1.506541 2.281682 0.94265342
-1.504678 2.2763731 0.94079781
-1.5028126 2.2710552 0.93893862
-1.5009439 2.265728 0.93707561
-1.4990714 2.2603922 0.93520951
-1.4971967 2.255048 0.93334126
-1.4953172 2.2496941 0.9314692
-1.4934361 2.2443311 0.92959452
-1.4915521 2.2389591 0.92771602
-1.4913795 2.2337422 0.92754483
-1.4914675 2.228549 0.92763186
-1.4915538 2.2233562 0.92771864
-1.4916413 2.2181642 0.92780519
-1.4917276 2.2129722 0.92789197
-1.4918156 2.2077801 0.92797899
-1.4919021 2.202589 0.92806578
-1.4919906 2.1973982 0.92815304
-1.4920771 2.1922083 0.92823982
-1.4921639 2.1870182 0.92832589
-1.4922502 2.1818283 0.92841291
-1.4923379 2.1766391 0.92849946
-1.4924252 2.1714501 0.92858696
-1.4925122 2.1662621 0.92867303
-1.4925992 2.1610742 0.92876053
-1.4926865 2.1558871 0.9288466
-1.4927728 2.1507003 0.92893362
-1.4928606 2.1455133 0.92902017
-1.4929469 2.1403272 0.92910719
-1.4930341 2.1351411 0.92919326
-1.4931211 2.1299553 0.92928052
-1.4932082 2.1247702 0.92936683
-1.4932945 2.1195853 0.92945361
-1.4933822 2.1144013 0.9295404
-1.4934685 2.1092172 0.92962718
-1.493556 2.1040344 0.92971325
-1.4936421 2.0988503 0.92980003
-1.4937298 2.0936682 0.92988682
-1.4938161 2.0884852 0.9299736
-1.4998152 2.5401487 0.94322968
-1.5023534 2.5348747 0.94574976
-1.5024397 2.5297027 0.94583654
-1.5025265 2.5245306 0.94592261
-1.5026135 2.5193608 0.94600868
-1.5027008 2.5141897 0.94609475
-1.5250213 2.5084019 0.96826625
-1.5251076 2.5032837 0.96835184
-1.5251937 2.4981658 0.96843719
-1.52528 2.4930489 0.96852255
-1.5253656 2.4879317 0.96860886
-1.5254512 2.4828148 0.96869349
-1.5255373 2.4776988 0.96877909
-1.5256236 2.4725828 0.96886444
-1.5034811 2.4676738 0.94687128
-1.5035682 2.4625068 0.94695735
-1.5036552 2.4573407 0.94704318
-1.5037422 2.4521749 0.94712925
-1.5038288 2.4470098 0.94721627
-1.5039158 2.4418449 0.94730234
-1.5040028 2.4366808 0.94738841
-1.5040898 2.4315169 0.94747448
-1.5041761 2.426353 0.9475615
-1.5042624 2.4211898 0.94764686
-1.5043495 2.4160268 0.94773293
-1.5044365 2.4108639 0.94781899
-1.5045228 2.4057019 0.94790578
-1.5046098 2.4005408 0.94799185
-1.5046959 2.3953788 0.94807744
-1.5047834 2.390218 0.94816351
-1.5048697 2.3850579 0.94825029
-1.5049558 2.3798978 0.94833565
-1.5050428 2.374738 0.94842172
-1.5051301 2.3695788 0.94850779
-1.5052161 2.3644199 0.94859457
-1.5053024 2.359262 0.94868016
-1.5053895 2.354104 0.94876623
-1.5054765 2.3489461 0.9488523
-1.5055621 2.3437891 0.94893837
-1.5056493 2.3386321 0.94902468
-1.5057356 2.3334751 0.94911003
-1.5058227 2.3283191 0.9491961
-1.5059097 2.323164 0.94928217
-1.5059958 2.3180079 0.94936895
-1.5060823 2.3128541 0.94945431
-1.5061691 2.307699 0.94954062
-1.5062554 2.3025451 0.94962597
-1.5063417 2.2973909 0.94971275
-1.5064287 2.292238 0.94979882
-1.5060232 2.28705 0.9493959
-1.5041621 2.2817521 0.94754696
-1.5022979 2.2764452 0.94569564
-1.5004315 2.2711301 0.94384098
-1.4985609 2.265805 0.94198298
-1.4966877 2.2604721 0.9401226
-1.4948103 2.2551291 0.93825889
-1.4929314 2.249778 0.93639112
-1.4910486 2.2444172 0.93452144
-1.4891627 2.239048 0.93264794
-1.4888899 2.2338231 0.93237734
-1.488977 2.2286322 0.93246341
-1.489064 2.2234411 0.93255091
-1.4891517 2.2182512 0.93263769
-1.489239 2.2130611 0.93272376
-1.4893253 2.2078712 0.93281054
-1.489413 2.202682 0.93289709
-1.4895 2.1974931 0.93298316
-1.4895871 2.1923051 0.9330709
-1.4896741 2.1871171 0.93315697
-1.4897621 2.1819291 0.93324351
-1.4898491 2.1767421 0.93332958
-1.4899352 2.1715553 0.93341637
-1.4900234 2.1663692 0.93350315
-1.4901102 2.1611831 0.93358946
-1.4901974 2.1559973 0.93367672
-1.4902835 2.1508121 0.93376207
-1.4903715 2.1456273 0.93384886
-1.4904585 2.1404433 0.93393493
-1.4905455 2.1352592 0.93402267
-1.4906325 2.1300752 0.93410873
-1.4907196 2.1248922 0.93419456
-1.4908068 2.1197102 0.93428206
-1.4908936 2.1145272 0.93436813
-1.4909818 2.1093452 0.93445492
-1.4910679 2.1041644 0.93454051
-1.4911542 2.0989833 0.93462729
-1.4912412 2.0938022 0.93471336
-1.4913292 2.0886223 0.93480015
-1.4970996 2.5401227 0.94779778
-1.4998817 2.5348408 0.95055151
-1.4999695 2.5296707 0.95063806
-1.5000558 2.5245018 0.95072341
-1.5001428 2.5193326 0.95080948
-1.5002298 2.5141637 0.95089698
-1.5225754 2.5083787 0.97302032
-1.5226612 2.5032618 0.97310424
-1.5227475 2.4981468 0.97318959
-1.5228336 2.4930308 0.97327495
-1.5229201 2.4879158 0.97336054
-1.5230057 2.4828007 0.97344542
-1.523092 2.4776869 0.97353077
-1.5231774 2.4725728 0.97361565
-1.5010116 2.4676659 0.95167041
-1.5010979 2.4625008 0.951756
-1.5011847 2.4573369 0.95184207
-1.5012717 2.4521728 0.95192814
-1.5013587 2.4470098 0.95201421
-1.5014458 2.4418468 0.95210028
-1.5015328 2.4366848 0.95218635
-1.5016191 2.4315219 0.9522717
-1.5017064 2.4263608 0.95235777
-1.5017931 2.4211988 0.95244408
-1.5018795 2.416039 0.95252943
-1.5019667 2.4108779 0.9526155
-1.5020537 2.4057178 0.95270157
-1.5021405 2.400558 0.9527874
-1.5022268 2.3953989 0.95287299
-1.5023141 2.39024 0.95295906
-1.5023994 2.3850808 0.95304537
-1.5024865 2.3799229 0.95313144
-1.5025735 2.3747659 0.95321751
-1.5026598 2.3696079 0.95330286
-1.5027468 2.3644509 0.95338893
-1.5028338 2.3592949 0.953475
-1.5029202 2.3541389 0.95356035
-1.5030072 2.348983 0.95364666
-1.5030932 2.343828 0.95373201
-1.5031803 2.3386729 0.95381808
-1.5032666 2.333518 0.95390344
-1.5033536 2.3283639 0.95398951
-1.5034406 2.323211 0.95407557
-1.5035276 2.3180571 0.95416164
-1.5036139 2.3129051 0.95424724
-1.503701 2.3077521 0.95433354
-1.5037873 2.3025999 0.95441866
-1.5038736 2.2974482 0.95450425
-1.5039604 2.2922971 0.95459008
-1.5036466 2.287117 0.9542799
-1.5017855 2.281822 0.95243597
-1.4999194 2.2765172 0.9505899
-1.4980512 2.271204 0.94874024
-1.4961798 2.265882 0.94688654
-1.4943061 2.260551 0.9450314
-1.4924271 2.2552102 0.94317126
-1.4905465 2.249861 0.94131017
-1.4886627 2.244503 0.93944478
-1.4867752 2.2391362 0.93757629
-1.4864016 2.2339041 0.93720675
-1.4864886 2.2287152 0.93729258
-1.4865763 2.2235262 0.93737936
-1.4866633 2.2183371 0.93746543
-1.4867511 2.2131491 0.93755221
-1.4868383 2.207962 0.93763828
-1.4869258 2.2027752 0.93772483
-1.4870129 2.1975882 0.9378109
-1.4870999 2.1924012 0.93789721
-1.4871879 2.1872151 0.93798399
-1.4872749 2.1820302 0.93807006
-1.487361 2.1768451 0.9381566
-1.4874482 2.1716602 0.93824267
-1.4875352 2.1664753 0.93832874
-1.487623 2.1612911 0.93841577
-1.48771 2.1561081 0.93850183
-1.487797 2.1509252 0.9385879
-1.4878848 2.1457422 0.93867445
-1.4879718 2.1405592 0.93876076
-1.4880588 2.1353772 0.93884659
-1.4881458 2.1301963 0.93893266
-1.4882336 2.1250153 0.93901968
-1.4883199 2.1198342 0.93910503
-1.4884076 2.1146533 0.93919158
-1.4884942 2.1094732 0.93927836
-1.4885812 2.1042943 0.93936467
-1.4886682 2.0991154 0.9394505
-1.4887552 2.0939362 0.93953681
-1.4888422 2.0887582 0.93962288
-1.4943845 2.5400977 0.95236254
-1.4974127 2.5348077 0.95534992
-1.4974997 2.5296397 0.95543599
-1.4975867 2.5244718 0.95552206
-1.4976737 2.5193048 0.95560813
-1.4977605 2.5141387 0.95569396
-1.5201309 2.5083549 0.9777689
-1.5202172 2.5032408 0.97785449
-1.5203032 2.4981267 0.97793841
-1.5203896 2.4930139 0.97802401
-1.5204759 2.4878998 0.97810936
-1.5205612 2.4827878 0.978194
-1.520648 2.4776747 0.97827888
-1.5207336 2.4725637 0.97836351
-1.4985428 2.4676578 0.95646548
-1.4986298 2.4624949 0.95655155
-1.4987168 2.4573328 0.95663762
-1.4988031 2.4521708 0.95672297
-1.4988909 2.4470098 0.95680833
-1.4989779 2.4418488 0.9568944
-1.4990642 2.4366879 0.95697975
-1.4991512 2.4315279 0.95706606
-1.499238 2.426369 0.95715213
-1.4993243 2.4212089 0.95723748
-1.4994123 2.41605 0.95732284
-1.4994991 2.410892 0.95740891
-1.4995854 2.4057338 0.95749426
-1.4996724 2.4005759 0.95758033
-1.4997587 2.3954189 0.95766568
-1.4998457 2.3902619 0.95775175
-1.4999325 2.3851049 0.95783639
-1.5000198 2.3799489 0.95792246
-1.5001068 2.3747931 0.95800877
-1.5001929 2.369638 0.95809412
-1.5002799 2.3644829 0.95818019
-1.5003667 2.359328 0.95826483
-1.500453 2.3541739 0.95835042
-1.5005407 2.34902 0.9584372
-1.500627 2.3438671 0.95852232
-1.5007133 2.3387141 0.95860791
-1.5008004 2.3335619 0.95869398
-1.5008872 2.328409 0.95877862
-1.5009744 2.3232579 0.95886469
-1.5010605 2.3181059 0.95895028
-1.5011468 2.3129551 0.95903563
-1.5012338 2.3078051 0.95912194
-1.5013208 2.302655 0.95920634
-1.5014079 2.2975051 0.95929265
-1.5014939 2.292356 0.95937777
-1.5012724 2.2871852 0.95915961
-1.4994097 2.2818911 0.95732093
-1.4975429 2.2765892 0.95547891
-1.4956744 2.2712781 0.9536345
-1.4938006 2.2659581 0.95178676
-1.491926 2.2606292 0.94993544
-1.4900458 2.2552922 0.94808125
-1.4881642 2.2499452 0.94622445
-1.4862795 2.2445891 0.94436336
-1.484391 2.2392242 0.94250083
-1.4839163 2.2339852 0.94203186
-1.4840026 2.2287982 0.94211745
-1.4840903 2.2236111 0.94220424
-1.4841774 2.2184241 0.94229031
-1.4842644 2.2132382 0.94237638
-1.4843521 2.2080531 0.94246173
-1.4844398 2.202867 0.94254851
-1.4845278 2.1976831 0.94263506
