# .PCD v0.7 - Point Cloud Data file format
VERSION 0.7
FIELDS x y z
SIZE 4 4 4
TYPE F F F
COUNT 1 1 1
WIDTH 1509
HEIGHT 1
VIEWPOINT 0 0 0 1 0 0 0
POINTS 1509
DATA ascii
-1.6745303 1.947638 0.98693001
-1.6720368 1.9435412 0.98680633
-1.669261 1.9394952 0.98638183
-1.6664859 1.9354477 0.98595732
-1.6637087 1.9313992 0.98553306
-1.6609312 1.9273487 0.98510784
-1.6581519 1.9232968 0.98468214
-1.6550516 1.9192986 0.98391598
-1.6515591 1.9153647 0.98273331
-1.648062 1.9114264 0.98154753
-1.6445619 1.9074841 0.98036057
-1.6410571 1.9035375 0.97917318
-1.6375489 1.8995861 0.97798359
-1.6337761 1.8956733 0.97651696
-1.6294971 1.8918338 0.97451842
-1.6252114 1.8879876 0.97251511
-1.6209167 1.8841339 0.97050846
-1.6166143 1.8802732 0.96849918
-1.6123047 1.8764051 0.96648538
-1.6074804 1.8726051 0.96393585
-1.602255 1.8688529 0.96096909
-1.597016 1.8650903 0.95799541
-1.5917625 1.8613175 0.95501298
-1.5864942 1.857535 0.95202261
-1.5807889 1.8537995 0.94858021
-1.574317 1.8501538 0.94434482
-1.5678204 1.8464935 0.9400937
-1.5612987 1.842819 0.9358263
-1.5547525 1.8391308 0.93154275
-1.5465187 1.8356377 0.92551351
-1.5381446 1.8321369 0.91935098
-1.5297253 1.828617 0.91315484
-1.5197172 1.825263 0.90532625
-1.5079545 1.8220828 0.89569563
-1.4953887 1.8189569 0.88525826
-1.4746233 1.8167181 0.8663668
-1.6596856 2.060183 0.9167555
-1.6691966 2.0530393 0.92994398
-1.6744939 2.0469582 0.93846512
-1.6781672 2.0412965 0.94517982
-1.681818 2.03567 0.95185328
-1.6831055 2.0306201 0.95591944
-1.6843067 2.0256059 0.95988268
-1.6855041 2.0206103 0.96383184
-1.6864822 2.0156803 0.96753109
-1.6862423 2.0110373 0.96989387
-1.6860042 2.0064044 0.97225118
-1.6857653 2.0017805 0.97460389
-1.6855277 1.9971669 0.97695214
-1.6848676 1.9926541 0.97883499
-1.6836203 1.9882716 0.98007721
-1.6823736 1.9838948 0.98131633
-1.6811281 1.9795229 0.98255521
-1.6798849 1.9751567 0.98379248
-1.678643 1.9707946 0.98502731
-1.6766157 1.9665941 0.98541415
-1.6745607 1.9624004 0.98576969
-1.6725061 1.958209 0.98612481
-1.6704521 1.9540184 0.98647964
-1.6683995 1.9498291 0.98683548
-1.6663258 1.9456452 0.98716819
-1.6635461 1.9415938 0.98674321
-1.6607643 1.9375408 0.98631752
-1.6579826 1.9334857 0.98589253
-1.6551989 1.9294294 0.98546678
-1.6524149 1.9253721 0.98504132
-1.6496286 1.9213126 0.98461491
-1.6462176 1.9173594 0.98352569
-1.6427131 1.9134171 0.9823392
-1.6392043 1.9094707 0.98115104
-1.635693 1.9055197 0.97996193
-1.6321774 1.9015646 0.97877288
-1.6286577 1.8976055 0.97758114
-1.6245381 1.8937361 0.97575927
-1.6202433 1.8898873 0.97375572
-1.6159394 1.886031 0.97174764
-1.6116281 1.8821675 0.9697367
-1.6073085 1.8782982 0.96772146
-1.6029714 1.8744217 0.96569383
-1.597736 1.8706684 0.96272779
-1.5924859 1.8669056 0.95975268
-1.5872221 1.8631319 0.95677114
-1.5819435 1.8593483 0.95378006
-1.5766509 1.8555542 0.9507823
-1.5703828 1.8518797 0.94677365
-1.563875 1.8482202 0.94252443
-1.5573419 1.8445475 0.93825972
-1.5507842 1.8408602 0.93397808
-1.5434858 1.837249 0.92893732
-1.5351019 1.8337526 0.92278433
-1.5266739 1.8302368 0.91659671
-1.5181967 1.8267018 0.9103753
-1.5066094 1.8235091 0.90095335
-1.4947478 1.8203098 0.89127052
-1.477955 1.8176347 0.87652659
-1.634679 2.0671933 0.89603561
-1.6557056 2.0572116 0.92186207
-1.6646653 2.0502253 0.93438798
-1.6683809 2.0445344 0.94113821
-1.6720738 2.0388787 0.94784814
-1.6748915 2.0334542 0.95358491
-1.6761118 2.0284224 0.9575631
-1.6773266 2.0234075 0.96152633
-1.6785375 2.0184109 0.96547639
-1.678969 2.0136056 0.96856731
-1.6787373 2.0089591 0.97093219
-1.6785059 2.0043218 0.97329068
-1.6782758 1.9996955 0.97564578
-1.6780453 1.9950787 0.97799522
-1.6769885 1.9906464 0.97944391
-1.675743 1.9862595 0.9806866
-1.6744996 1.9818784 0.98192716
-1.6732572 1.9775014 0.98316801
-1.672016 1.9731293 0.98440546
-1.6704738 1.9688228 0.98531771
-1.668416 1.9646217 0.98567355
-1.6663593 1.9604222 0.98602885
-1.6643019 1.9562243 0.98638445
-1.6622466 1.9520274 0.98674005
-1.6601925 1.9478322 0.98709702
-1.6578128 1.9436983 0.98710454
-1.655026 1.9396402 0.98667836
-1.6522382 1.9355793 0.9862529
-1.6494498 1.9315175 0.98582721
-1.64666 1.9274545 0.98540103
-1.6438694 1.9233893 0.98497409
-1.640862 1.9193598 0.98431951
-1.6373496 1.9154129 0.98313183
-1.6338341 1.9114622 0.98194367
-1.6303154 1.9075074 0.98075342
-1.6267918 1.9035486 0.97956264
-1.6232646 1.8995851 0.97836965
-1.6195697 1.8956432 0.97700292
-1.6152638 1.8917915 0.974998
-1.6109505 1.8879327 0.9729892
-1.6066298 1.8840674 0.97097754
-1.6023015 1.8801939 0.96896136
-1.5979651 1.8763148 0.96694183
-1.5932083 1.8724883 0.96448886
-1.5879482 1.8687241 0.96151376
-1.5826728 1.8649489 0.95853221
-1.5773838 1.8611643 0.95554066
-1.5720797 1.8573703 0.95254195
-1.5664448 1.8536078 0.94920516
-1.5599252 1.8499492 0.94495881
-1.5533804 1.8462776 0.94069409
-1.5468116 1.842592 0.93641573
-1.5402156 1.8388911 0.93211836
-1.5320587 1.8353686 0.92621833
-1.5236202 1.8318576 0.92003959
-1.515134 1.8283256 0.91382599
-1.5052656 1.8249335 0.90620339
-1.4934058 1.8217425 0.89654875
-1.4812677 1.8185449 0.88662964
-1.4603268 1.8162967 0.86769694
-1.6420707 2.0614276 0.91369283
-1.6517311 2.0542428 0.92696261
-1.6585257 2.0477948 0.93706989
-1.6622621 2.0421095 0.94381416
-1.6659758 2.0364575 0.95051932
-1.6678723 2.0312533 0.95523113
-1.6691054 2.0262194 0.95920891
-1.6703343 2.0212045 0.96317333
-1.6715586 2.0162084 0.96712363
-1.6714375 2.0115247 0.96960682
-1.6712143 2.0068748 0.97197288
-1.6709909 2.0022354 0.97433448
-1.6707681 1.9976046 0.97669005
-1.6703308 1.9930302 0.9788087
-1.6690863 1.9886335 0.98005378
-1.6678441 1.9842423 0.98129815
-1.6666033 1.9798551 0.98254067
-1.6653636 1.9754729 0.9837817
-1.6641257 1.9710958 0.98502201
-1.6622496 1.9668508 0.98557621
-1.6601902 1.9626435 0.98593318
-1.6581314 1.9584384 0.98628926
-1.6560738 1.9542335 0.98664528
-1.6540157 1.9500302 0.98700136
-1.6519598 1.9458293 0.98735839
-1.6492703 1.9417449 0.98704135
-1.6464772 1.9376792 0.98661542
-1.6436836 1.9336112 0.98618853
-1.640888 1.9295419 0.98576117
-1.6380914 1.9254713 0.98533428
-1.6352952 1.9213991 0.98490763
-1.6319728 1.9174141 0.98392737
-1.6284494 1.9134598 0.9827373
-1.6249225 1.9095005 0.981547
-1.6213909 1.9055371 0.98035359
-1.6178571 1.9015692 0.97916037
-1.614319 1.8975972 0.97796577
-1.6102742 1.8937004 0.97624356
-1.6059519 1.8898385 0.97423357
-1.6016216 1.885971 0.97222006
-1.5972829 1.8820953 0.97020364
-1.5929364 1.8782128 0.96818215
-1.5885829 1.8743228 0.96615833
-1.5834024 1.8705448 0.96327811
-1.5781168 1.8667699 0.96029538
-1.5728157 1.8629844 0.95730454
-1.5675017 1.8591878 0.95430535
-1.5621725 1.8553823 0.95129877
-1.555971 1.8516808 0.94739407
-1.549415 1.8480098 0.94313294
-1.542834 1.8443246 0.93885583
-1.5362277 1.8406261 0.93456179
-1.5290148 1.836985 0.92965305
-1.5205662 1.8334775 0.92348385
-1.5120702 1.8299503 0.91727912
-1.5035276 1.8264035 0.91104001
-1.4920667 1.8231734 0.90182191
-1.4801074 1.8199636 0.89211339
-1.4637059 1.817217 0.87788033
-1.6380837 2.0584404 0.91882563
-1.6477612 2.0512784 0.93205655
-1.6523802 2.0453637 0.93975282
-1.656137 2.0396824 0.94649351
-1.6595867 2.0341003 0.95288467
-1.6608377 2.0290482 0.95687813
-1.6620851 2.0240147 0.96085733
-1.6633279 2.0189984 0.96482313
-1.6641042 2.0141029 0.96827543
-1.6638887 2.0094392 0.97064871
-1.663673 2.004786 0.9730162
-1.6634581 2.0001431 0.97537923
-1.6632422 1.9955095 0.97773695
-1.6624036 1.9910167 0.97941905
-1.6611627 1.9866158 0.9806658
-1.6599234 1.9822183 0.98191094
-1.6586851 1.9778264 0.98315579
-1.6574473 1.9734395 0.98439801
-1.6560626 1.9690883 0.98547882
-1.654001 1.964873 0.98583609
-1.6519395 1.960659 0.98619282
-1.6498781 1.9564471 0.98655033
-1.6478183 1.9522368 0.98690706
-1.6457591 1.9480271 0.98726362
-1.6434976 1.9438572 0.98740464
-1.6406994 1.939785 0.98697895
-1.637899 1.9357117 0.98655081
-1.6350989 1.931637 0.98612368
-1.6322975 1.9275597 0.98569608
-1.6294948 1.9234822 0.985268
-1.6265814 1.9194213 0.98472524
-1.6230502 1.9154623 0.98353422
-1.6195164 1.9114989 0.98234177
-1.6159766 1.9075311 0.98114812
-1.6124352 1.9035594 0.97995371
-1.6088889 1.8995827 0.97875744
-1.6052734 1.8956136 0.97749132
-1.6009411 1.8917493 0.97548014
-1.5966012 1.8878779 0.97346634
-1.5922532 1.8840009 0.97144777
-1.5878984 1.8801152 0.96942657
-1.5835336 1.8762233 0.96740109
-1.5788478 1.8723695 0.96504515
-1.5735509 1.8685931 0.9620629
-1.5682403 1.8648072 0.95907158
-1.5629151 1.8610101 0.95607239
-1.5575749 1.8572032 0.95306462
-1.5520115 1.8534144 0.94983393
-1.5454445 1.8497442 0.9455747
-1.5388526 1.8460605 0.9412992
-1.5322332 1.8423625 0.93700755
-1.5255897 1.8386509 0.93269873
-1.5175117 1.835099 0.92692816
-1.509006 1.831575 0.92073196
-1.5004539 1.8280325 0.91450244
-1.4907281 1.8246031 0.90708679
-1.4787719 1.8214004 0.89740753
-1.4667104 1.8181714 0.88764441
-1.4459497 1.8158733 0.86903471
-1.6176445 2.0642817 0.90337896
-1.6341007 2.0554583 0.92395175
-1.6424296 2.0486395 0.93566185
-1.6462284 2.0429282 0.94243807
-1.6500053 2.0372522 0.94917423
-1.652526 2.0318916 0.95453525
-1.6537913 2.0268397 0.95852989
-1.6550525 2.0218046 0.96251053
-1.656309 2.0167875 0.96647608
-1.6565301 2.0120158 0.96931779
-1.6563212 2.0073481 0.9716925
-1.6561136 2.0026917 0.97406214
-1.6559062 1.9980454 0.9764266
-1.6556945 1.9934095 0.97878176
-1.6544546 1.9889975 0.98003137
-1.6532165 1.9845916 0.98127979
-1.6519803 1.9801887 0.98252678
-1.6507443 1.9757917 0.98377186
-1.6495103 1.9714007 0.98501551
-1.6477889 1.9671099 0.98573917
-1.6457257 1.962889 0.98609644
-1.6436622 1.9586689 0.98645443
-1.6415988 1.9544504 0.98681188
-1.6395378 1.9502336 0.98716891
-1.6374764 1.9460186 0.98752636
-1.6349028 1.9418982 0.98734266
-1.632098 1.9378185 0.98691386
-1.6292919 1.9337381 0.98648596
-1.6264846 1.929655 0.98605812
-1.6236767 1.9255712 0.98563027
-1.620867 1.9214859 0.98520172
-1.6176372 1.9174693 0.98433328
-1.6140954 1.9135025 0.9831394
-1.6105483 1.9095306 0.98194456
-1.6069988 1.9055547 0.98074871
-1.6034447 1.9015741 0.97955126
-1.5998865 1.8975891 0.97835261
-1.5959195 1.893664 0.97673053
-1.591571 1.8897907 0.97471505
-1.5872126 1.8859104 0.97269577
-1.5828476 1.8820224 0.97067338
-1.5784739 1.8781278 0.96864575
-1.5740929 1.8742259 0.9666155
-1.5689785 1.8704201 0.96383256
-1.5636566 1.8666325 0.96084195
-1.5583202 1.8628352 0.95784229
-1.5529692 1.8590275 0.95483357
-1.5476037 1.8552085 0.95181811
-1.5414698 1.8514806 0.94801927
-1.5348656 1.8477983 0.94374597
-1.5282354 1.844102 0.93945599
-1.5215799 1.8403904 0.93515021
-1.5144562 1.8367199 0.93037337
-1.5059408 1.8332013 0.92418653
-1.4973795 1.8296621 0.91796577
-1.4887692 1.8261038 0.91170907
-1.4774371 1.822836 0.90269458
-1.4653795 1.8196149 0.8929612
-1.6202934 2.0596831 0.91576064
-1.6301225 2.0524793 0.92907214
-1.6362511 2.0461981 0.93835545
-1.6400716 2.0404918 0.94512665
-1.643869 2.0348194 0.95185781
-1.6454519 2.0296795 0.95618933
-1.6467313 2.024626 0.96018428
-1.6480069 2.0195899 0.96416533
-1.6491361 2.0146034 0.96798122
-1.6489351 2.0099237 0.97036284
-1.6487353 2.0052531 0.97273916
-1.6485355 2.0005932 0.97511071
-1.6483363 1.995943 0.97747731
-1.6477202 1.9913898 0.9793945
-1.6464833 1.9869727 0.98064601
-1.6452475 1.9825605 0.98189443
-1.6440136 1.9781544 0.98314333
-1.6427814 1.9737517 0.9843908
-1.6415502 1.9693556 0.98563468
-1.6394902 1.9651257 0.98600078
-1.637424 1.960898 0.98635846
-1.6353586 1.9566723 0.98671645
-1.6332947 1.9524471 0.98707485
-1.6312302 1.9482242 0.98743212
-1.6290896 1.9440167 0.98770756
-1.6262783 1.9399325 0.98727876
-1.6234672 1.9358447 0.9868502
-1.6206535 1.9317571 0.98642117
-1.617841 1.9276665 0.98599255
-1.6150261 1.9235752 0.98556423
-1.6122096 1.9194825 0.98513377
-1.608659 1.9155115 0.98393869
-1.6051059 1.9115351 0.98274314
-1.601548 1.9075546 0.98154688
-1.5979859 1.9035708 0.98034769
-1.5944203 1.8995819 0.97914809
-1.5908512 1.8955884 0.97794658
-1.5865272 1.8917065 0.97596711
-1.5821612 1.8878238 0.97394687
-1.5777862 1.8839335 0.9719221
-1.5734034 1.880036 0.96989495
-1.5690117 1.8761312 0.96786278
-1.5643981 1.8722503 0.96560603
-1.5590641 1.868462 0.96261466
-1.5537173 1.8646636 0.95961404
-1.5483547 1.8608556 0.95660651
-1.542979 1.8570356 0.95359015
-1.5374898 1.8532192 0.95046556
-1.5308735 1.8495381 0.94619489
-1.5242324 1.8458425 0.94190699
-1.5175658 1.8421324 0.93760413
-1.5108727 1.8384081 0.93328291
-1.502875 1.8348267 0.92764175
-1.4943023 1.8312919 0.92142916
-1.4856833 1.8277373 0.91518193
-1.4761059 1.8242693 0.90797633
-1.4640483 1.8210562 0.89827085
-1.4518875 1.8178163 0.88848221
-1.6163015 2.0566847 0.92091274
-1.6261487 2.0495031 0.93418634
-1.6300672 2.0437541 0.9410522
-1.6339082 2.0380521 0.94781858
-1.6370653 2.0325351 0.95383549
-1.6383637 2.0274627 0.95784587
-1.6396575 2.022408 0.96184248
-1.6409461 2.0173719 0.96582377
-1.6415157 2.0125098 0.96902692
-1.641323 2.0078263 0.97140998
-1.6411309 2.0031524 0.97378868
-1.6409384 1.9984891 0.9761619
-1.6407478 1.9938354 0.97852969
-1.6397234 1.9893645 0.9800089
-1.6384895 1.9849424 0.98126042
-1.6372569 1.980525 0.98251218
-1.6360255 1.9761138 0.98376131
-1.6347954 1.9717065 0.98500949
-1.6332332 1.9673699 0.98590314
-1.6311642 1.9631346 0.98626232
-1.6290962 1.9589014 0.98662001
-1.6270289 1.9546688 0.98697919
-1.624963 1.9504375 0.98733759
-1.622898 1.9462082 0.98769677
-1.6204417 1.9420514 0.98764509
-1.6176254 1.9379587 0.98721606
-1.6148071 1.9338646 0.98678631
-1.6119875 1.9297689 0.98635751
-1.6091673 1.9256712 0.9859277
-1.606346 1.9215733 0.98549724
-1.60321 1.9175254 0.98474038
-1.599648 1.9135451 0.98354363
-1.5960827 1.9095606 0.98234499
-1.5925127 1.9055719 0.98114485
-1.5889407 1.9015788 0.979945
-1.5853626 1.8975815 0.9787423
-1.5814747 1.8936275 0.97722083
-1.5770983 1.8897415 0.97519988
-1.5727129 1.8858491 0.97317487
-1.5683202 1.8819492 0.97114533
-1.5639195 1.8780411 0.96911311
-1.5595105 1.8741269 0.96707642
-1.5544647 1.8702954 0.96439099
-1.549106 1.8664955 0.96139038
-1.5437335 1.8626853 0.95838284
-1.5383452 1.858866 0.9553653
-1.5329432 1.8550347 0.95234126
-1.526878 1.8512799 0.94864684
-1.5202254 1.847585 0.9443621
-1.5135466 1.8438765 0.9400602
-1.5068412 1.8401532 0.93574107
-1.4998076 1.8364534 0.93109822
-1.4912262 1.8329223 0.92489463
-1.4825957 1.829372 0.91865557
-1.4739187 1.8258016 0.91238308
-1.462721 1.8224967 0.90357459
-1.450562 1.8192636 0.89381427
-1.3942844 1.8161712 0.84213889
-1.6005461 2.0613604 0.91074538
-1.6123155 2.0536907 0.92605859
-1.6199907 2.0470397 0.93694693
-1.6238775 2.0413074 0.94375128
-1.6277391 2.0356109 0.95051199
-1.6299504 2.0303152 0.95549458
-1.6312628 2.0252416 0.95950598
-1.6325707 2.0201869 0.96350276
-1.6338744 2.0151496 0.96748531
-1.6338761 2.010411 0.97007525
-1.6336925 2.0057242 0.97246069
-1.6335077 2.0010462 0.97484034
-1.6333243 1.9963804 0.97721571
-1.6329366 1.9917654 0.97936916
-1.6317036 1.9873332 0.9806245
-1.6304727 1.9829055 0.98187792
-1.6292424 1.9784845 0.98313063
-1.6280143 1.9740669 0.98438215
-1.6267886 1.9696549 0.98563129
-1.6248829 1.9653794 0.98616523
-1.6228124 1.9611384 0.98652434
-1.6207422 1.956898 0.98688346
-1.6186738 1.9526591 0.98724288
-1.6166062 1.948422 0.98760247
-1.614538 1.9441866 0.98796117
-1.6117643 1.9400792 0.98758215
-1.6089408 1.9359788 0.98715264
-1.6061157 1.9318783 0.98672169
-1.6032908 1.9277742 0.98629123
-1.6004645 1.9236699 0.98586118
-1.5976357 1.9195634 0.98543024
-1.5941756 1.9155608 0.98434579
-1.5906026 1.9115719 0.98314738
-1.5870259 1.9075791 0.98194629
-1.583445 1.9035817 0.98074454
-1.5798594 1.8995801 0.97954088
-1.5762707 1.8955737 0.9783358
-1.572023 1.8916641 0.97645599
-1.5676285 1.8877687 0.97442955
-1.5632268 1.8838661 0.97239995
-1.5588163 1.879956 0.97036541
-1.5543976 1.876039 0.96832776
-1.5498564 1.8721303 0.96616924
-1.5444864 1.8683302 0.96316981
-1.5391024 1.8645197 0.96016085
-1.533704 1.8606992 0.95714396
-1.5282911 1.8568673 0.95411998
-1.5228618 1.8530253 0.95108622
-1.5162123 1.8493298 0.94681954
-1.5095221 1.8456222 0.94251931
-1.5028055 1.8419007 0.93820333
-1.4960628 1.8381646 0.93387038
-1.4881485 1.8345536 0.92836088
-1.4795085 1.8310066 0.92213088
-1.4708201 1.8274403 0.91586554
-1.4613938 1.8239346 0.9088704
-1.4492373 1.8207105 0.89913946
-1.4369749 1.8174584 0.88932502
-1.4169527 1.8150188 0.87173146
-1.5983338 2.0579238 0.91784555
-1.6083341 2.0507007 0.93119925
-1.613775 2.0445864 0.9396534
-1.6176819 2.0388589 0.94645202
-1.62149 2.0331838 0.95312977
-1.622822 2.0280907 0.95715731
-1.6241486 2.0230167 0.96116894
-1.6254706 2.0179605 0.96516597
-1.6263962 2.0130079 0.96873367
-1.6262192 2.0083072 0.97112596
-1.6260426 2.0036161 0.97351283
-1.6258661 1.9989358 0.97589463
-1.6256914 1.994265 0.9782719
-1.624891 1.9897337 0.97998476
-1.623661 1.9852964 0.98124176
-1.6224335 1.9808632 0.98249733
-1.621207 1.9764367 0.98375124
-1.6199813 1.9720142 0.98500371
-1.6185796 1.9676323 0.98606831
-1.6165061 1.9633837 0.98642844
-1.6144338 1.9591353 0.98678803
-1.6123635 1.9548882 0.98714817
-1.6102916 1.9506443 0.98750776
-1.6082222 1.9464003 0.98786759
-1.6058857 1.9422065 0.98794973
-1.6030573 1.9380997 0.98751903
-1.6002276 1.9339927 0.98708898
-1.5973955 1.9298835 0.98665684
-1.5945637 1.9257729 0.98622662
-1.5917302 1.9216609 0.98579586
-1.5886891 1.9175816 0.98515105
-1.5851088 1.9135886 0.98395026
-1.5815234 1.9095916 0.98274899
-1.5779337 1.9055902 0.98154479
-1.5743424 1.901584 0.98034137
-1.5707448 1.897573 0.97913462
-1.5669364 1.8935908 0.977714
-1.5625328 1.8896927 0.97568727
-1.5581201 1.8857874 0.97365606
-1.5537003 1.8818755 0.97162104
-1.5492719 1.8779547 0.96958172
-1.5448353 1.8740273 0.96753955
-1.5398588 1.8701684 0.9649511
-1.5344635 1.8663574 0.96194309
-1.5290534 1.8625355 0.9589265
-1.5236294 1.8587031 0.95590109
-1.5181888 1.8548596 0.95286727
-1.5121953 1.851077 0.94927967
-1.5054929 1.8473706 0.94498181
-1.498765 1.8436499 0.94066745
-1.4920105 1.8399147 0.93633741
-1.4850688 1.836185 0.93182731
-1.4764193 1.8326423 0.92560661
-1.4677221 1.8290801 0.91935009
-1.4589759 1.8254973 0.91306049
-1.4479142 1.8221542 0.90445793
-1.4356551 1.8189108 0.89467353
-1.4204808 1.8159488 0.88198906
-1.3891469 1.8146864 0.85315335
-1.5725598 2.0649445 0.89712238
-1.5943387 2.0549147 0.92301697
-1.6036004 2.047888 0.93552744
-1.6075524 2.0421309 0.94236225
-1.6114795 2.0364079 0.94915539
-1.614334 2.0309551 0.95479512
-1.6156799 2.0258625 0.95882219
-1.6170212 2.020787 0.96283472
-1.6183575 2.0157306 0.96683323
-1.6187108 2.0109019 0.96978581
-1.6185424 2.0061975 0.97217929
-1.6183743 2.0015037 0.97456849
-1.6182063 1.9968199 0.97695225
-1.6180384 1.9921458 0.97933072
-1.6168227 1.9876958 0.98060346
-1.6155967 1.9832537 0.98186117
-1.6143714 1.978816 0.9831177
-1.6131473 1.9743832 0.98437327
-1.611925 1.9699566 0.98562741
-1.6101776 1.9656358 0.98633176
-1.6081033 1.9613795 0.98669189
-1.6060288 1.9571257 0.98705196
-1.6039557 1.952873 0.98741281
-1.601884 1.948621 0.98777312
-1.5998117 1.9443716 0.98813319
-1.5971551 1.940228 0.98788726
-1.5943195 1.936114 0.98745584
-1.5914826 1.9319993 0.98702365
-1.5886451 1.9278829 0.98659319
-1.5858064 1.9237648 0.98616099
-1.5829662 1.9196454 0.98572838
-1.5795994 1.9156108 0.98475528
-1.5760064 1.9116091 0.98355281
-1.5724101 1.9076033 0.98234838
-1.5688099 1.9035928 0.9811433
-1.5652049 1.8995783 0.9799363
-1.5615963 1.8955592 0.97872716
-1.5574257 1.891621 0.97694814
-1.5530035 1.887713 0.97491479
-1.5485736 1.8837978 0.97287881
-1.5441359 1.8798753 0.97083879
-1.5396894 1.8759457 0.96879584
-1.5352238 1.8720094 0.96673769
-1.5298173 1.8681982 0.96372801
-1.5243961 1.8643746 0.96071142
-1.5189598 1.8605413 0.95768571
-1.5135087 1.856698 0.95465195
-1.5080427 1.8528435 0.95160985
-1.5014596 1.8491213 0.94744688
-1.494719 1.8454012 0.94313496
-1.4879535 1.8416677 0.93880659
-1.4811598 1.8379194 0.93446124
-1.4733297 1.8342783 0.92908335
-1.4646226 1.8307203 0.92283636
-1.4558659 1.8271416 0.91655409
-1.4465942 1.8235972 0.90976977
-1.4343363 1.8203624 0.90001398
-1.4219726 1.8170987 0.89017284
-1.4023327 1.814588 0.8730914
-1.4909258 2.0851729 0.81712657
-1.5801926 2.0591743 0.91474789
-1.5903493 2.0519085 0.92818385
-1.5973506 2.0454252 0.93824464
-1.6013237 2.0396724 0.94507444
-1.6052719 2.0339544 0.95186257
-1.6071647 2.028723 0.95646256
-1.6085244 2.023629 0.9604916
-1.6098804 2.0185533 0.96450436
-1.6111684 2.0135098 0.96843868
-1.6110076 2.0087912 0.97083986
-1.6108472 2.0040834 0.97323525
-1.6106876 1.9993858 0.97562563
-1.6105278 1.9946984 0.97801155
-1.6099567 1.9901052 0.97996157
-1.6087319 1.985652 0.98122239
-1.6075085 1.9812051 0.98248273
-1.6062859 1.9767623 0.98374116
-1.6050647 1.9723256 0.98499769
-1.6038276 1.9678959 0.98623443
-1.6017507 1.9636329 0.98659569
-1.5996748 1.9593706 0.98695701
-1.5975981 1.9551101 0.98731709
-1.5955234 1.9508502 0.98767841
-1.5934479 1.9465935 0.9880392
-1.5912355 1.9423616 0.98825598
-1.5883944 1.9382426 0.98782408
-1.5855526 1.9341216 0.98739243
-1.5827086 1.9299986 0.98695976
-1.5798645 1.9258744 0.98652786
-1.5770189 1.9217489 0.98609543
-1.5740757 1.9176379 0.98556364
-1.5704749 1.9136326 0.98435974
-1.5668709 1.9096222 0.98315412
-1.5632616 1.9056076 0.98194665
-1.5596501 1.9015889 0.98073941
-1.5560322 1.8975655 0.97952932
-1.5523062 1.8935541 0.97821093
-1.5478749 1.8896431 0.97617757
-1.5434355 1.8857255 0.97414064
-1.5389868 1.8818005 0.97209942
-1.5345311 1.8778677 0.97005457
-1.5300671 1.8739283 0.96800667
-1.5251619 1.870042 0.96551675
-1.5197294 1.8662181 0.9624989
-1.5142821 1.862384 0.95947301
-1.5088195 1.8585391 0.95643973
-1.5033417 1.8546838 0.95339686
-1.4974208 1.8508731 0.94991511
-1.4906684 1.8471551 0.94560581
-1.4838908 1.8434228 0.94127977
-1.4770859 1.8396749 0.93693686
-1.4702392 1.8359146 0.93256098
-1.4615216 1.8323605 0.92632264
-1.452755 1.8287861 0.92004967
-1.443939 1.8251921 0.91374141
-1.4330192 1.8218108 0.9053477
-1.4206583 1.8185556 0.89553666
-1.4059128 1.8155214 0.88337523
-1.3839782 1.8132102 0.86409295
-1.4957167 2.0901618 0.82652903
-1.497409 2.0846317 0.83108938
-1.4990948 2.0791223 0.83563107
-1.57619 2.0561492 0.91994667
-1.5863644 2.0489061 0.93334407
-1.5910959 2.0429599 0.94096422
-1.5950894 2.0372109 0.94778901
-1.5986011 2.0316002 0.95408988
-1.5999807 2.0264864 0.9581334
-1.6013552 2.0213919 0.96216261
-1.6027254 2.016315 0.96617711
-1.6034383 2.0113962 0.96949393
-1.6032853 2.0066757 0.97189629
-1.603133 2.0019641 0.97429407
-1.6029816 1.9972632 0.9766866
-1.6028299 1.9925717 0.9790737
-1.6018406 1.9880611 0.98058194
-1.6006182 1.9836032 0.98184371
-1.5993977 1.9791501 0.983105
-1.598178 1.9747033 0.98436463
-1.5969598 1.9702603 0.9856233
-1.5953755 1.9658936 0.98649931
-1.5932964 1.9616228 0.98686063
-1.5912179 1.9573551 0.98722261
-1.5891401 1.9530882 0.98758316
-1.5870626 1.9488221 0.98794514
-1.5849867 1.9445574 0.98830646
-1.5824505 1.9403764 0.98819351
-1.5796028 1.9362497 0.98776138
-1.5767539 1.9321213 0.98732871
-1.5739034 1.9279915 0.98689586
-1.5710523 1.9238598 0.98646206
-1.5682007 1.9197263 0.98602962
-1.5649292 1.915661 0.98516834
-1.5613161 1.9116464 0.98396206
-1.5576999 1.9076279 0.98275357
-1.5540794 1.903604 0.98154444
-1.5504541 1.8995767 0.98033363
-1.5468261 1.8955444 0.97912085
-1.5427346 1.891578 0.9774425
-1.5382857 1.8876575 0.97540438
-1.5338279 1.8837298 0.97336215
-1.5293615 1.8797939 0.97131664
-1.5248867 1.8758527 0.96926659
-1.5204047 1.8719018 0.96721315
-1.5150542 1.8680639 0.96429074
-1.5095959 1.8642294 0.96126485
-1.5041219 1.8603833 0.95823008
-1.4986331 1.8565271 0.9551875
-1.493129 1.8526602 0.95213705
-1.4866136 1.8489113 0.94807923
-1.4798242 1.8451792 0.94375491
-1.473007 1.8414327 0.93941408
-1.4661629 1.8376719 0.93505591
-1.4584211 1.8340017 0.92981029
-1.4496446 1.8304309 0.92354685
-1.4408189 1.826841 0.91724628
-1.4317037 1.8232582 0.91067433
-1.4193445 1.8200114 0.90089303
-1.4068785 1.8167363 0.89102638
-1.3876303 1.8141539 0.87445968
-1.4991336 2.0903256 0.83721006
-1.5008142 2.0848114 0.84173584
-1.5024889 2.0793178 0.84624422
-1.5551852 2.061991 0.90456152
-1.5721921 2.0531294 0.92513907
-1.580793 2.0462708 0.93682343
-1.5848329 2.0404923 0.94368571
-1.5888486 2.034749 0.95050579
-1.5913883 2.0293608 0.95576304
-1.5927835 2.0242465 0.95980752
-1.594172 2.0191505 0.96383703
-1.595556 2.0140731 0.96785265
-1.5956889 2.0092788 0.97055131
-1.595544 2.0045536 0.9729563
-1.5954009 1.9998388 0.97535527
-1.5952567 1.9951351 0.97774923
-1.5949215 1.9904795 0.97993821
-1.5937003 1.9860116 0.98120373
-1.5924809 1.9815484 0.98246765
-1.5912632 1.9770901 0.98373061
-1.5900469 1.9726366 0.98499143
-1.5888317 1.9681896 0.98625129
-1.5868962 1.9638842 0.98676419
-1.5848153 1.9596075 0.98712671
-1.5827345 1.9553332 0.98748845
-1.580655 1.9510589 0.9878509
-1.5785757 1.9467868 0.98821288
-1.5764885 1.9425184 0.98856491
-1.5736353 1.9383854 0.98813105
-1.5707806 1.9342513 0.9876982
-1.5679247 1.9301153 0.98726386
-1.5650681 1.9259777 0.98683077
-1.5622103 1.9218384 0.98639643
-1.5593511 1.9176975 0.98596287
-1.555747 1.9136765 0.98477113
-1.5521219 1.9096529 0.98356241
-1.5484941 1.905625 0.98235255
-1.5448619 1.9015938 0.98114032
-1.5412252 1.8975573 0.97992635
-1.5375831 1.8935169 0.97871101
-1.5331235 1.8895935 0.97667122
-1.528656 1.8856632 0.97462732
-1.5241802 1.8817259 0.97258061
-1.519695 1.8777802 0.97053033
-1.5152034 1.8738279 0.96847546
-1.5103712 1.8699142 0.96608543
-1.5049016 1.8660773 0.96305907
-1.4994165 1.8622316 0.96002501
-1.4939159 1.8583741 0.956981
-1.4884005 1.8545058 0.9539305
-1.4825548 1.8506677 0.95055556
-1.4757506 1.846938 0.94623309
-1.4689234 1.8431928 0.94189471
-1.4620671 1.8394334 0.93753862
-1.4551848 1.8356588 0.93316638
-1.4465319 1.8320764 0.92704338
-1.4376956 1.8284906 0.92075324
-1.4288102 1.8248844 0.91442662
-1.4180343 1.8214649 0.90624303
-1.4055694 1.8181983 0.89640498
-1.3912611 1.8150927 0.88476735
-1.369141 1.8127706 0.86544383
-1.5025305 2.0904889 0.8478303
-1.5033952 2.0851798 0.85147446
-1.5039724 2.0799561 0.85480744
-1.5045464 2.0747468 0.85812998
-1.5578659 2.0573974 0.91684639
-1.5681995 2.050112 0.93032622
-1.5745043 2.0437963 0.93955374
-1.5785657 2.0380223 0.94641006
-1.5826023 2.0322835 0.95322514
-1.5841639 2.0271165 0.95744008
-1.5855722 2.022001 0.96148574
-1.5869761 2.0169046 0.96551591
-1.5880557 2.0118952 0.96919996
-1.5879192 2.0071554 0.97161156
-1.5877837 2.0024273 0.97401792
-1.5876484 1.9977093 0.97641909
-1.5875136 1.9930013 0.97881496
-1.5867544 1.9884291 0.98056096
-1.5855374 1.9839554 0.98182791
-1.584321 1.9794872 0.9830935
-1.583106 1.9750236 0.98435646
-1.5818923 1.9705666 0.98561943
-1.5804731 1.966153 0.98666757
-1.5783892 1.9618689 0.98702979
-1.5763066 1.957585 0.98739272
-1.5742242 1.9533043 0.98775595
-1.5721428 1.9490243 0.98811841
-1.5700622 1.9447452 0.98848063
-1.5676494 1.9405274 0.9885034
-1.5647888 1.9363874 0.98806834
-1.5619279 1.9322453 0.9876343
-1.5590653 1.9281018 0.98720068
-1.5562015 1.9239565 0.98676592
-1.5533375 1.9198092 0.98633182
-1.5501626 1.9157113 0.98558331
-1.5465302 1.9116836 0.98437339
-1.5428946 1.9076523 0.98316163
-1.5392534 1.9036158 0.98194796
-1.5356095 1.8995754 0.98073423
-1.5319602 1.8955295 0.97951841
-1.5279503 1.8915347 0.97794116
-1.5234737 1.8876011 0.97589725
-1.5189872 1.883661 0.97384888
-1.5144923 1.8797128 0.97179669
-1.5099895 1.8757579 0.96974015
-1.5054781 1.8717951 0.96768081
-1.5001981 1.8679302 0.96485609
-1.4947015 1.864082 0.96182114
-1.4891901 1.860224 0.95877874
-1.4836628 1.8563553 0.95572639
-1.4781202 1.8524761 0.9526661
-1.4716752 1.8486992 0.94871539
-1.4648342 1.8449553 0.94437814
-1.4579662 1.8411967 0.94002521
-1.4510719 1.8374233 0.93565506
-1.443419 1.8337222 0.93054229
-1.4345732 1.8301408 0.92426145
-1.4256762 1.8265392 0.91794318
-1.4167248 1.8229169 0.91158485
-1.4042625 1.8196594 0.90177757
-1.3916922 1.816373 0.89188421
-1.3728437 1.8137186 0.87583393
-1.5036935 2.0911822 0.85605907
-1.5042694 2.0859511 0.85938394
-1.5048437 2.0807347 0.86269885
-1.5054165 2.0755332 0.86600536
-1.5059876 2.0703466 0.86930144
-1.5538605 2.0543611 0.92206621
-1.5641003 2.0471234 0.93539131
-1.5682087 2.0413184 0.94228548
-1.572292 2.0355494 0.94913846
-1.5754958 2.0300035 0.9550578
-1.576924 2.0248682 0.95911944
-1.5783477 2.0197523 0.96316588
-1.579766 2.0146554 0.96719652
-1.5802594 2.0097699 0.9702602
-1.5801321 2.0050275 0.97267467
-1.5800048 2.0002949 0.97508246
-1.5798775 1.9955732 0.97748572
-1.5797511 1.9908624 0.97988355
-1.5785654 1.9863718 0.9811846
-1.5773506 1.9818933 0.98245281
-1.5761371 1.97742 0.98372006
-1.5749257 1.9729522 0.9849847
-1.5737144 1.9684889 0.98624933
-1.571942 1.9641365 0.98693436
-1.5698558 1.9598466 0.9872973
-1.5677713 1.9555569 0.98766023
-1.5656874 1.9512693 0.98802394
-1.5636032 1.9469827 0.98838687
-1.5615214 1.9426974 0.98875004
-1.5587785 1.9385296 0.98844117
-1.5559118 1.9343816 0.98800635
-1.5530438 1.9302319 0.9875716
-1.5501748 1.9260805 0.98713678
-1.5473044 1.9219276 0.98670173
-1.5444332 1.9177728 0.98626554
-1.5409236 1.9137206 0.98518658
-1.5372788 1.9096838 0.98397285
-1.5336299 1.9056441 0.98275918
-1.5299784 1.9015985 0.98154426
-1.5263207 1.8975487 0.98032677
-1.5226604 1.8934945 0.97910804
-1.5182781 1.8895438 0.97716862
-1.5137814 1.8856 0.97511858
-1.5092783 1.88165 0.97306609
-1.5047648 1.8776919 0.97100818
-1.5002434 1.8737265 0.96894789
-1.4954875 1.8697851 0.96665746
-1.4899791 1.8659369 0.96362203
-1.4844555 1.8620777 0.96057892
-1.4789169 1.8582077 0.95752656
-1.473363 1.8543279 0.95446628
-1.4675943 1.8504616 0.95119959
-1.4607406 1.8467201 0.94686544
-1.4538612 1.8429623 0.94251418
-1.4469539 1.8391906 0.93814594
-1.4400194 1.8354036 0.93376052
-1.431448 1.8317913 0.92776912
-1.4225422 1.8281935 0.92146093
-1.4135853 1.8245748 0.91511667
-1.4029571 1.821117 0.9071421
-1.3903893 1.8178396 0.8972795
-1.3765271 1.8146607 0.88616782
-1.354219 1.8123286 0.86680061
-1.5045669 2.0919423 0.86395854
-1.5051401 2.0867198 0.86726606
-1.5057126 2.0815103 0.87056518
-1.5061455 2.0763495 0.87370938
-1.5060961 2.0713124 0.87634337
-1.5377498 2.0590255 0.91203308
-1.5498595 2.0513277 0.92728049
-1.5577774 2.0446393 0.93813092
-1.5619074 2.0388384 0.94502056
-1.5660119 2.0330741 0.95186734
-1.5682276 2.0277507 0.95674056
-1.5696702 2.0226154 0.96080267
-1.5711093 2.0174985 0.96484977
-1.5725425 2.0124002 0.96888137
-1.5724444 2.0076396 0.97132474
-1.5723251 2.0028939 0.97373968
-1.572206 1.9981583 0.97614962
-1.5720873 1.993433 0.97855407
-1.5715644 1.9887991 0.98053896
-1.5703521 1.9843103 0.98181069
-1.5691408 1.9798261 0.98308009
-1.5679301 1.9753476 0.98434877
-1.5667211 1.9708738 0.98561555
-1.5654705 1.9664137 0.98683703
-1.5633823 1.9621146 0.98720092
-1.5612952 1.9578172 0.98756504
-1.5592085 1.9535218 0.98792893
-1.5571221 1.9492275 0.98829234
-1.5550375 1.9449342 0.98865652
-1.5527498 1.940679 0.98881418
-1.5498775 1.9365249 0.98837817
-1.5470039 1.9323694 0.98794293
-1.5441289 1.9282122 0.98750764
-1.541253 1.924053 0.98707098
-1.5383763 1.9198922 0.98663568
-1.5353014 1.9157616 0.98600233
-1.5316491 1.9117215 0.98478717
-1.5279922 1.9076769 0.98357207
-1.5243317 1.9036275 0.982355
-1.5206673 1.8995733 0.98113728
-1.5169981 1.8955151 0.97991759
-1.5130708 1.8914906 0.97844285
-1.5085655 1.8875439 0.97639257
-1.5040506 1.8835913 0.97433817
-1.4995272 1.8796306 0.97227955
-1.4949969 1.8756627 0.97021753
-1.4904559 1.8716869 0.96815127
-1.4852479 1.8677944 0.96542573
-1.4797128 1.863935 0.96238196
-1.4741623 1.8600634 0.95932978
-1.4685973 1.8561821 0.9562698
-1.4630156 1.852291 0.95320022
-1.4566419 1.8484856 0.94935513
-1.4497503 1.8447301 0.94500571
-1.4428315 1.8409594 0.94064033
-1.4358847 1.8371738 0.93625689
-1.4283246 1.8334422 0.931279
-1.419408 1.8298485 0.92497957
-1.4104413 1.8262339 0.91864461
-1.4014227 1.8225998 0.91227388
-1.3890884 1.8193043 0.90266663
-1.3764125 1.8160059 0.89274752
-1.3579738 1.81328 0.87721676
-1.505437 2.0927007 0.87183136
-1.5056808 2.0875626 0.87477934
-1.5056319 2.0825071 0.8774159
-1.5055833 2.0774636 0.88004535
-1.5055336 2.0724316 0.88266885
-1.5054858 2.0674109 0.88528639
-1.5353506 2.0556042 0.91896349
-1.5458637 2.0482998 0.93248791
-1.5514476 2.0421524 0.94087434
-1.5555995 2.036356 0.94775826
-1.5594814 2.0306501 0.95434827
-1.5609452 2.0254948 0.95842636
-1.5624045 2.0203581 0.96248895
-1.563857 2.0152407 0.9665361
-1.5647207 2.0102644 0.96996808
-1.5646096 2.0055048 0.97239113
-1.5644985 2.0007553 0.97480756
-1.5643877 1.9960161 0.9772194
-1.5642776 1.9912868 0.97962672
-1.5633252 1.9867364 0.98116505
-1.5621144 1.9822417 0.98243797
-1.5609065 1.9777522 0.98370951
-1.5596994 1.9732683 0.98497915
-1.5584939 1.9687901 0.98624736
-1.5568862 1.9643922 0.98710406
-1.5547965 1.9600869 0.98746938
-1.552707 1.9557827 0.9878335
-1.5506183 1.9514806 0.98819834
-1.5485308 1.9471798 0.98856246
-1.5464439 1.9428799 0.98892641
-1.5438235 1.9386748 0.98875219
-1.5409446 1.9345131 0.9883157
-1.5380639 1.9303501 0.98787999
-1.5351827 1.9261849 0.98744351
-1.5322998 1.9220184 0.98700613
-1.529415 1.9178497 0.98656988
-1.5260036 1.9137647 0.98560339
-1.5223383 1.9097157 0.98438662
-1.5186696 1.9056618 0.98316938
-1.5149966 1.9016033 0.98194969
-1.5113192 1.8975407 0.98072863
-1.5076388 1.8934739 0.97950703
-1.5033369 1.8894928 0.9776687
-1.4988116 1.8855366 0.97561336
-1.4942789 1.8815738 0.97355402
-1.4897374 1.8776028 0.97149056
-1.4851868 1.8736246 0.96942335
-1.4805084 1.8696555 0.96723354
-1.474961 1.8657949 0.96418929
-1.469399 1.8619235 0.9611364
-1.463822 1.8580409 0.95807594
-1.4582295 1.8541478 0.95500612
-1.4525387 1.8502549 0.95184785
-1.4456347 1.8464997 0.94750112
-1.4387034 1.8427304 0.94313765
-1.4317446 1.8389457 0.93875724
-1.4247576 1.8351462 0.9343583
-1.4162718 1.8315043 0.92849898
-1.4072938 1.8278942 0.92217213
-1.398267 1.8242635 0.91581213
-1.3877894 1.8207673 0.90804809
-1.3751166 1.8174779 0.89815903
-1.3617089 1.8142264 0.88757592
-1.3392104 1.8118831 0.86816651
-1.5051669 2.09373 0.87849063
-1.5051178 2.0886672 0.88112104
-1.50507 2.0836153 0.88374811
-1.5050211 2.0785758 0.88636756
-1.5049731 2.0735486 0.88898152
-1.5049247 2.0685318 0.89158928
-1.5087867 2.0626361 0.89823908
-1.5313418 2.0525572 0.92420375
-1.5409131 2.0454891 0.93669826
-1.5451132 2.0396626 0.94362086
-1.5492849 2.0338721 0.95049858
-1.5521704 2.0283902 0.95603603
-1.5536491 2.0232341 0.96011436
-1.5551231 2.0180969 0.96417862
-1.5565907 2.0129788 0.96822667
-1.5568576 2.0081275 0.97103596
-1.5567551 2.0033638 0.97346044
-1.5566525 1.9986117 0.97587848
-1.556551 1.9938682 0.97829247
-1.5562704 1.9891717 0.98051745
-1.5550615 1.9846668 0.98179322
-1.5538547 1.9801675 0.98306715
-1.5526494 1.9756731 0.98433989
-1.551445 1.9711841 0.9856112
-1.5502419 1.9667 0.98688102
-1.548274 1.9623636 0.98737299
-1.5461826 1.9580513 0.9877376
-1.5440915 1.9537413 0.98810291
-1.5420007 1.9494319 0.98846823
-1.5399104 1.9451249 0.98883283
-1.5377518 1.9408305 0.98912662
-1.5348661 1.9366633 0.98869044
-1.5319803 1.9324942 0.98825324
-1.5290934 1.9283231 0.98781627
-1.5262052 1.9241505 0.98737937
-1.5233152 1.9199754 0.98694146
-1.5203429 1.9158132 0.98642182
-1.5166698 1.9117595 0.98520404
-1.5129923 1.9077015 0.98398513
-1.5093113 1.9036398 0.98276472
-1.5056264 1.8995718 0.98154294
-1.5019373 1.8954996 0.98031968
-1.4980959 1.8914466 0.97894818
-1.4935614 1.8874878 0.97689092
-1.4890181 1.8835213 0.97483087
-1.4844667 1.8795482 0.97276622
-1.4799057 1.8755668 0.9706983
-1.4753364 1.8715787 0.96862531
-1.4702018 1.8676584 0.96599895
-1.464628 1.8637857 0.96294707
-1.4590384 1.8599035 0.95988512
-1.4534343 1.8560089 0.95681536
-1.4478145 1.8521039 0.95373696
-1.4415148 1.8482717 0.94999862
-1.4345706 1.8445029 0.94563782
-1.427599 1.8407199 0.94125861
-1.4206011 1.8369222 0.93686295
-1.413134 1.83316 0.93202001
-1.4041476 1.8295544 0.92570347
-1.3951087 1.8259276 0.91934991
-1.3860197 1.8222808 0.91296196
-1.3738208 1.8189473 0.90356213
-1.3610405 1.8156381 0.89361727
-1.3430196 1.8128389 0.87860864
-1.504604 2.0948286 0.88482851
-1.5045564 2.0897696 0.88745058
-1.504508 2.0847216 0.89006644
-1.5044606 2.0796859 0.89267612
-1.5044131 2.0746617 0.89528006
-1.5042895 2.0696676 0.8977989
-1.5038164 2.0647624 0.89995205
-1.5166609 2.0568607 0.9158293
-1.5273377 2.0495133 0.92943811
-1.53455 2.0429916 0.93945169
-1.5387708 2.0371704 0.94636756
-1.5429658 2.0313852 0.953242
-1.5448463 2.0261259 0.95772731
-1.5463401 2.0209694 0.9618066
-1.5478276 2.0158312 0.96587062
-1.5490695 2.0107627 0.96967387
-1.5489751 2.005985 0.97210479
-1.5488807 2.0012178 0.97453117
-1.5487884 1.9964613 0.97695231
-1.5486944 1.9917158 0.97936749
-1.5479792 1.9871019 0.98114568
-1.5467744 1.9825923 0.98242241
-1.5455703 1.9780869 0.98369801
-1.5443678 1.9735875 0.98497242
-1.5431663 1.9690931 0.9862451
-1.5417291 1.9646485 0.98727632
-1.5396348 1.9603287 0.98764211
-1.5375413 1.9560096 0.98800814
-1.5354487 1.9516923 0.98837399
-1.5333555 1.9473776 0.98873836
-1.5312637 1.9430629 0.98910511
-1.5287694 1.9388207 0.98906535
-1.5258782 1.9346452 0.98862839
-1.5229846 1.9304677 0.98819077
-1.5200906 1.9262893 0.9877519
-1.5171958 1.9221089 0.98731422
-1.5142986 1.9179264 0.98687589
-1.5109851 1.9138093 0.98602432
-1.5073005 1.9097471 0.98480421
-1.5036111 1.9056798 0.98358142
-1.4999179 1.9016091 0.98235869
-1.4962201 1.8975326 0.98113376
-1.4925188 1.8934525 0.97990793
-1.4882981 1.8894427 0.97817206
-1.4837459 1.8854735 0.97611034
-1.4791836 1.8814975 0.97404569
-1.4746128 1.8775134 0.97197533
-1.4700336 1.8735228 0.96990192
-1.465432 1.8695257 0.96781224
-1.4598477 1.865652 0.96475965
-1.4542465 1.8617681 0.9616977
-1.4486303 1.8578738 0.95862818
-1.4429982 1.8539675 0.95554954
-1.4373509 1.8500507 0.95246279
-1.430433 1.8462783 0.9481408
-1.4234502 1.8424959 0.94376498
-1.4164385 1.8386993 0.93937171
-1.409399 1.8348874 0.93495983
-1.4009988 1.8312155 0.92923379
-1.3919504 1.8275926 0.92289001
-1.3828501 1.8239505 0.91650999
-1.3725284 1.8204147 0.90895957
-1.3597492 1.8171141 0.89904451
-1.3468065 1.8137889 0.88899231
-1.3241166 1.8114364 0.86953884
-1.5040423 2.0959239 0.89115429
-1.5039949 2.0908699 0.89376682
-1.5039477 2.0858257 0.89637268
-1.5036871 2.0808451 0.89875132
-1.5032144 2.0759237 0.90090609
-1.5027435 2.0710115 0.90305728
-1.5022724 2.0661089 0.90520304
-1.5018015 2.0612152 0.90734518
-1.5126443 2.0537972 0.92109799
-1.5233384 2.0464723 0.93466604
-1.5281796 2.0404923 0.94220752
-1.5324227 2.0346758 0.94911933
-1.535993 2.0290344 0.95532691
-1.537508 2.0238576 0.95942193
-1.5390153 2.0186999 0.96350199
-1.5405195 2.0135615 0.96756697
-1.5411592 2.0086181 0.97074431
-1.5410736 2.0038366 0.97317785
-1.5409882 1.9990668 0.97560573
-1.5409031 1.9943068 0.97802806
-1.5408183 1.989557 0.98044538
-1.5396647 1.985026 0.981776
-1.5384629 1.9805112 0.98305446
-1.5372612 1.9760007 0.98433173
-1.5360628 1.9714967 0.98560703
-1.5348657 1.9669964 0.98688143
-1.533064 1.9626137 0.98754621
-1.5309676 1.958287 0.98791176
-1.5288714 1.9539624 0.98827827
-1.5267763 1.9496384 0.98864406
-1.5246818 1.9453162 0.98901057
-1.522589 1.9409956 0.98937643
-1.5197562 1.9368025 0.98900384
-1.5168575 1.9326198 0.98856568
-1.5139579 1.9284353 0.98812753
-1.5110564 1.9242485 0.987688
-1.5081544 1.9200605 0.98724985
-1.505251 1.9158702 0.98681027
-1.5015924 1.9117978 0.98562402
-1.4978951 1.9077269 0.98440099
-1.494193 1.9036506 0.98317659
-1.4904881 1.8995702 0.98195094
-1.4867779 1.8954848 0.98072463
-1.4830225 1.8914013 0.97945559
-1.47846 1.8874301 0.97739238
-1.4738879 1.8834515 0.97532684
-1.4693068 1.8794655 0.97325528
-1.4647174 1.8754715 0.97118115
-1.4601201 1.8714695 0.96910268
-1.4550583 1.8675222 0.96657598
-1.4494461 1.8636371 0.96351433
-1.4438182 1.8597411 0.96044356
-1.438174 1.8558336 0.95736545
-1.4325145 1.851916 0.95427823
-1.4262909 1.848056 0.95064741
-1.4192946 1.8442746 0.94627321
-1.4122704 1.8404793 0.94188213
-1.4052188 1.8366687 0.9374736
-1.3978496 1.8328763 0.93276536
-1.3887912 1.8292584 0.9264316
-1.379681 1.8256196 0.92006016
-1.3705175 1.8219606 0.91365319
-1.3584607 1.8185886 0.90446383
-1.3455709 1.8152674 0.89449036
-1.3279798 1.8123955 0.88000816
-1.503085 2.0920513 0.89970678
-1.5026116 2.0871131 0.90186322
-1.5021399 2.0821841 0.9040159
-1.501668 2.0772643 0.90616471
-1.5011982 2.0723538 0.90830779
-1.5007285 2.0674527 0.91044879
-1.5002609 2.0625606 0.91258496
-1.4997932 2.0576789 0.9147166
-1.5086325 2.0507381 0.92635924
-1.517512 2.0438387 0.93801641
-1.5218041 2.0379901 0.94496572
-1.5260687 2.0321796 0.95187253
-1.5286245 2.0267625 0.95702326
-1.5301545 2.021585 0.96112019
-1.5316772 2.0164266 0.96520042
-1.533196 2.011287 0.96926564
-1.5332283 2.0064692 0.9718172
-1.5331511 2.0016842 0.9742524
-1.5330757 1.9969096 0.9766826
-1.5329986 1.9921461 0.97910708
-1.5325271 1.9874712 0.98112679
-1.531327 1.9829451 0.98240757
-1.5301273 1.9784243 0.9836877
-1.5289305 1.9739087 0.98496634
-1.5277339 1.969399 0.98624384
-1.5264692 1.9649066 0.98744935
-1.5243709 1.9605719 0.98781705
-1.5222716 1.9562385 0.98818356
-1.5201744 1.9519079 0.98855054
-1.518078 1.9475766 0.98891681
-1.5159816 1.9432485 0.98928308
-1.5136151 1.938967 0.98938018
-1.5107112 1.9347783 0.98894209
-1.5078055 1.9305868 0.98850274
-1.5048988 1.9263948 0.98806411
-1.5019907 1.9222003 0.98762405
-1.4990807 1.9180043 0.987185
-1.4958689 1.9138548 0.98644668
-1.4921634 1.9097782 0.9852227
-1.4884533 1.9056987 0.98399663
-1.4847401 1.901614 0.98277074
-1.4810212 1.8975242 0.98154134
-1.4772984 1.8934301 0.98031187
-1.4731628 1.8893908 0.978679
-1.4685804 1.8854102 0.9766106
-1.4639897 1.8814205 0.9745388
-1.4593897 1.8774233 0.97246325
-1.4547811 1.8734196 0.97038311
-1.4501638 1.8694073 0.9683001
-1.4446366 1.8655086 0.96533358
-1.4389969 1.8616115 0.96226352
-1.433341 1.857704 0.95918369
-1.4276692 1.853785 0.95609605
-1.4219818 1.8498557 0.95299977
-1.4151343 1.846056 0.94878459
-1.4080983 1.8422619 0.94439608
-1.4010339 1.8384516 0.93998969
-1.3939422 1.8346274 0.93556565
-1.38563 1.8309243 0.92997313
-1.3765098 1.8272898 0.92361075
-1.3673359 1.8236345 0.91721308
-1.3571744 1.8200606 0.90987676
-1.3442876 1.816748 0.89993453
-1.3312864 1.813406 0.8899045
-1.3089373 1.8109866 0.87091976
-1.5015346 2.0933859 0.90497661
-1.5010632 2.088449 0.90712732
-1.5005933 2.0835209 0.90927428
-1.5001239 2.0786035 0.9114157
-1.499655 2.0736947 0.91355401
-1.4991874 2.0687957 0.91568786
-1.4987209 2.0639052 0.91781735
-1.498255 2.0590248 0.91994327
-1.497577 2.0542002 0.92184728
-1.5046252 2.047682 0.93161482
-1.5111078 2.0413303 0.94078296
-1.5154214 2.0354865 0.94772726
-1.5196913 2.0296836 0.95461142
-1.5212425 2.0244856 0.95872337
-1.5227861 2.0193071 0.96282053
-1.5243258 2.0141482 0.96690243
-1.5253458 2.0091133 0.97045082
-1.5252786 2.0043139 0.97289366
-1.5252113 1.9995254 0.97533053
-1.5251431 1.9947478 0.97776216
-1.5250758 1.9899812 0.98018879
-1.5241606 1.9853883 0.98175806
-1.5229636 1.9808568 0.98304176
-1.521768 1.9763312 0.98432285
-1.5205737 1.9718097 0.98560339
-1.5193806 1.9672946 0.98688185
-1.5177505 1.9628646 0.98772091
-1.5156488 1.9585235 0.98808765
-1.5135485 1.9541841 0.98845464
-1.5114492 1.9498463 0.98882306
-1.5093502 1.9455097 0.9891898
-1.5072526 1.9411731 0.9895575
-1.5045451 1.9369433 0.9893201
-1.5016336 1.9327463 0.98888004
-1.4987211 1.9285471 0.98844028
-1.4958069 1.9243468 0.9879995
-1.4928924 1.9201456 0.98756039
-1.4899756 1.9159408 0.98711985
-1.4864166 1.9118363 0.98604661
-1.4826988 1.9077517 0.98481953
-1.4789752 1.9036626 0.9835903
-1.47525 1.8995683 0.98236209
-1.4715186 1.8954698 0.9811312
-1.4677835 1.8913667 0.97989815
-1.4632608 1.8873724 0.97789842
-1.4586596 1.8833804 0.97582519
-1.4540492 1.8793814 0.97374821
-1.4494309 1.8753741 0.97166783
-1.4448014 1.8713593 0.9695822
-1.4398186 1.867384 0.96715659
-1.4341673 1.8634855 0.9640854
-1.4284992 1.8595772 0.96100628
-1.4228159 1.8556577 0.95791787
-1.4171157 1.8517275 0.95482212
-1.41097 1.8478388 0.95130026
-1.4039208 1.844045 0.94691247
-1.3968444 1.8402374 0.94250941
-1.3897389 1.8364139 0.93808705
-1.3824688 1.8325909 0.93351543
-1.373337 1.8289609 0.92716259
-1.3641547 1.8253096 0.92077518
-1.3549181 1.8216372 0.91434962
-1.3430058 1.8182269 0.90536982
-1.3300081 1.8148942 0.89537108
-1.3128543 1.8119493 0.88141525
-1.4995171 2.0897837 0.91238546
-1.4990494 2.0848567 0.91452593
-1.4985812 2.079941 0.91666073
-1.4981136 2.0750346 0.91879284
-1.4976487 2.0701365 0.92091995
-1.4968566 2.0653224 0.92271072
-1.4960591 2.0605173 0.92449242
-1.4952627 2.0557203 0.92627001
-1.4944673 2.0509312 0.92804527
-1.5003341 2.0446932 0.93656951
-1.5046974 2.0388186 0.94355261
-1.509033 2.0329795 0.95049137
-1.5122796 2.0274031 0.95631391
-1.5138452 2.0222049 0.96042728
-1.5154048 2.0170252 0.96452475
-1.5169591 2.0118661 0.96860713
-1.5173684 2.0069566 0.97152841
-1.5173086 2.0021532 0.97397196
-1.5172497 1.9973621 0.97641098
-1.5171903 1.9925805 0.97884405
-1.5169656 1.9878424 0.98110646
-1.5157708 1.9833003 0.98239225
-1.5145772 1.9787636 0.98367691
-1.5133847 1.9742317 0.98496032
-1.5121932 1.9697063 0.98624164
-1.5110034 1.9651855 0.98752129
-1.5090021 1.9608178 0.98799145
-1.506899 1.9564694 0.98836035
-1.504797 1.9521228 0.98872781
-1.502696 1.9477779 0.9890967
-1.5005956 1.943434 0.98946393
-1.4983611 1.9391155 0.98969859
-1.4954435 1.9349123 0.98925811
-1.4925247 1.9307067 0.98881781
-1.4896055 1.9265 0.98837727
-1.4866842 1.9222924 0.98793626
-1.4837618 1.9180818 0.98749506
-1.4806536 1.9139 0.9868719
-1.4769275 1.9098111 0.98564482
-1.4731969 1.9057165 0.98441511
-1.4694628 1.9016187 0.98318452
-1.4657235 1.8975153 0.98195243
-1.4619793 1.8934082 0.98071867
-1.4579296 1.8893399 0.97918886
-1.4533169 1.8853456 0.97711492
-1.4486966 1.8813428 0.9750362
-1.4440668 1.8773332 0.97295445
-1.4394292 1.873316 0.97086811
-1.434782 1.8692911 0.96877915
-1.4293278 1.865364 0.96591157
-1.4236479 1.8614542 0.96283197
-1.4179527 1.8575339 0.95974308
-1.4122411 1.8536019 0.95664656
-1.406514 1.8496594 0.95354122
-1.3997378 1.8458318 0.94943243
-1.3926494 1.842025 0.94503081
-1.3855318 1.838203 0.94061178
-1.3783855 1.8343649 0.93617487
-1.3701657 1.8306315 0.93071681
-1.3609716 1.8269844 0.92433727
-1.3517247 1.8233171 0.91792047
-1.3417263 1.8197043 0.91079873
-1.3287308 1.8163794 0.90083075
-1.3156202 1.8130256 0.89077306
-1.2936695 1.810534 0.87230945
-1.4979724 2.0911164 0.91763693
-1.4975059 2.0861926 0.91977
-1.4969339 2.0813029 0.92179155
-1.4961342 2.0764744 0.92357725
-1.4953364 2.0716546 0.92535967
-1.4945393 2.0668421 0.92713964
-1.4937439 2.0620365 0.9289161
-1.4929491 2.0572402 0.93068945
-1.4921567 2.0524504 0.93246061
-1.4913647 2.0476682 0.93422872
-1.4938948 2.0421736 0.93934745
-1.49828 2.0363038 0.94632488
-1.5026385 2.0304701 0.95325863
-1.5048527 2.0251186 0.95801979
-1.5064343 2.0199194 0.96213365
-1.5080103 2.0147398 0.96623272
-1.5094197 2.0096109 0.97015536
-1.5093687 2.0047941 0.97260702
-1.5093182 1.9999878 0.97505319
-1.5092688 1.9951925 0.97749388
-1.5092183 1.9904081 0.9799298
-1.5085484 1.9857529 0.98174107
-1.5073565 1.9812058 0.98302859
-1.5061659 1.9766638 0.9843151
-1.504976 1.9721268 0.9855988
-1.5037891 1.9675956 0.98688179
-1.5023314 1.963119 0.98789603
-1.5002269 1.9587622 0.98826444
-1.4981215 1.9544082 0.98863262
-1.4960171 1.9500549 0.98900127
-1.4939145 1.945703 0.98937064
-1.4918116 1.9413532 0.98973858
-1.489233 1.9370849 0.98963827
-1.4863086 1.9328731 0.9891963
-1.4833826 1.928661 0.98875481
-1.4804559 1.924446 0.98831385
-1.477528 1.9202305 0.98787236
-1.474599 1.9160123 0.98742992
-1.4711401 1.911875 0.98647177
-1.4674019 1.907777 0.9852407
-1.4636579 1.9036741 0.98400933
-1.4599104 1.8995664 0.98277557
-1.4561583 1.8954544 0.98154038
-1.4524021 1.891338 0.9803043
-1.4479625 1.887314 0.97840607
-1.4433317 1.8833094 0.97632688
-1.4386922 1.8792969 0.97424513
-1.4340429 1.8752766 0.97215784
-1.4293851 1.8712491 0.97006601
-1.4244803 1.867245 0.96774077
-1.4187889 1.8633347 0.964661
-1.4130814 1.8594134 0.96157163
-1.4073577 1.8554806 0.95847535
-1.4016185 1.8515371 0.95536977
-1.3955511 1.8476205 0.95195568
-1.3884487 1.8438147 0.94755644
-1.3813189 1.8399938 0.94313979
-1.3741603 1.8361574 0.93870479
-1.3669723 1.8323054 0.93425262
-1.3577868 1.8286613 0.92790025
-1.3485298 1.8249975 0.92149377
