# .PCD v0.7 - Point Cloud Data file format
VERSION 0.7
FIELDS x y z
SIZE 4 4 4
TYPE F F F
COUNT 1 1 1
WIDTH 1483
HEIGHT 1
VIEWPOINT 0 0 0 1 0 0 0
POINTS 1483
DATA ascii
-1.2238026 3.0988045 0.91258574
-1.219804 3.0941586 0.9117049
-1.215803 3.0895092 0.91082364
-1.2117751 3.0848706 0.90991998
-1.2072365 3.0805361 0.9085567
-1.2027217 3.0761802 0.90721846
-1.1982001 3.0718191 0.90587592
-1.1936742 3.067452 0.90453458
-1.1891786 3.0630593 0.9032228
-1.1845976 3.058708 0.90183711
-1.1795886 3.0546019 0.90006995
-1.1745868 3.0504816 0.89831454
-1.1696349 3.0463204 0.89660704
-1.164676 3.0421519 0.89489734
-1.1597096 3.0379782 0.89318579
-1.1547983 3.0337615 0.89152735
-1.1494675 3.0297759 0.889498
-1.1440282 3.02584 0.88737756
-1.1386466 3.021858 0.88531274
-1.1332874 3.0178504 0.88327336
-1.1279186 3.0138357 0.88123012
-1.1225983 3.0097811 0.87923509
-1.1173114 3.0056963 0.87727296
-1.1116034 3.0018325 0.87494493
-1.1059254 2.9979379 0.87264782
-1.1002908 2.9940052 0.87039506
-1.094646 2.9900658 0.86813706
-1.0890647 2.9860759 0.865942
-1.0835198 2.9820542 0.86378437
-1.0779654 2.9780233 0.86162269
-1.0722657 2.9740579 0.85933918
-1.0664383 2.9701476 0.8569479
-1.0605984 2.966229 0.85455209
-1.0548688 2.9622366 0.85225856
-1.0491493 2.9582248 0.84997886
-1.0434204 2.9542048 0.8476975
-1.0378233 2.9501028 0.84553409
-1.0322151 2.9459927 0.8433674
-1.0263603 2.9419973 0.84099233
-1.0205274 2.9379747 0.83864111
-1.0146835 2.9339447 0.83628553
-1.0088927 2.9298739 0.83398008
-1.0031911 2.9257441 0.83175921
-0.99747854 2.9216061 0.82953387
-0.99185246 2.9174109 0.82738739
-0.98628289 2.9131751 0.82529503
-0.98055905 2.9090042 0.82307512
-0.97474039 2.9048648 0.82077819
-0.96894932 2.9006991 0.81851131
-0.96315378 2.8965225 0.81624442
-0.95752835 2.8922493 0.81412989
-0.95189297 2.8879685 0.81200987
-0.94629234 2.8836591 0.80992609
-0.94082189 2.8792737 0.80795813
-0.93534416 2.8748815 0.80598778
-0.92967749 2.8705659 0.80386251
-0.92395699 2.8662636 0.80169505
-0.91822714 2.8619525 0.79952395
-0.91263312 2.8575656 0.79747397
-0.90710139 2.853137 0.79548198
-0.90156054 2.848702 0.79348636
-0.89619815 2.8441727 0.7916469
-0.89085639 2.8396239 0.78982788
-0.88551432 2.8350646 0.78801322
-0.88006854 2.8305411 0.78611583
-0.87435657 2.8261256 0.7839967
-0.86869961 2.8216732 0.78193051
-0.86324328 2.8171189 0.78003716
-0.85777843 2.8125591 0.77814144
-0.85241657 2.8079419 0.7763353
-0.84720653 2.8032486 0.77466053
-0.84198737 2.7985492 0.77298361
-0.83690679 2.793781 0.77142423
-0.83127987 2.789237 0.76941311
-0.82519239 2.7848768 0.76702291
-0.81941855 2.7803712 0.76489806
-0.81375325 2.7758069 0.76286906
-0.80807829 2.7712348 0.76083595
-0.80277711 2.7664959 0.75911826
-0.79751486 2.7617309 0.75743729
-0.79214054 2.7570024 0.75566643
-1.2309766 3.1227252 0.91579235
-1.2275761 3.1177096 0.91545534
-1.2241745 3.1126914 0.91512024
-1.2207795 3.1076682 0.91479057
-1.2169992 3.1028819 0.91411316
-1.2129929 3.098232 0.91323072
-1.208982 3.0935771 0.91234845
-1.2049817 3.0889122 0.91147578
-1.2009946 3.0842323 0.91061908
-1.1968708 3.0796306 0.90964031
-1.1923419 3.0752668 0.90829921
-1.1878339 3.0708826 0.90698028
-1.1833445 3.066478 0.90568209
-1.1788502 3.0620701 0.9043805
-1.1743513 3.0576551 0.90307969
-1.1697534 3.0532906 0.901694
-1.1647947 3.0491285 0.89998811
-1.1598293 3.0449605 0.89828038
-1.1548886 3.0407677 0.8965981
-1.1499815 3.0365448 0.89495045
-1.1450679 3.0323153 0.89330059
-1.1401536 3.0280757 0.89165479
-1.1349396 3.0239971 0.88974702
-1.1295772 3.0199904 0.88771147
-1.1242033 3.0159776 0.88567185
-1.1189178 3.0119028 0.88371402
-1.1136277 3.0078185 0.88175637
-1.1083267 3.0037289 0.87979519
-1.1031033 2.9995825 0.8779065
-1.0976372 2.9955595 0.87580794
-1.0919906 2.9916222 0.87355644
-1.0864395 2.9876194 0.87139428
-1.0808939 2.9835997 0.8692416
-1.0753376 2.9795732 0.86708564
-1.0698845 2.9754765 0.86502337
-1.0644306 2.9713693 0.8629663
-1.0589668 2.9672546 0.86090571
-1.0532916 2.963239 0.85866487
-1.0475761 2.9592311 0.85639447
-1.0418658 2.9552054 0.85413522
-1.03627 2.951107 0.85197926
-1.0306658 2.9470015 0.8498202
-1.0250866 2.9428678 0.84768993
-1.0196028 2.9386735 0.8456462
-1.0141087 2.9344714 0.84359866
-1.0084703 2.930331 0.84143054
-1.0027753 2.9262054 0.83921945
-0.9970687 2.9220731 0.83700359
-0.99145055 2.9178827 0.83486736
-0.98588693 2.9136524 0.83278477
-0.98031259 2.909415 0.83069789
-0.97485453 2.9051075 0.82871401
-0.96942174 2.9007752 0.82675755
-0.96398127 2.896436 0.82479864
-0.95850056 2.8921046 0.82280976
-0.95287544 2.8878303 0.82070214
-0.94726694 2.8835361 0.81861377
-0.94180626 2.8791575 0.81665683
-0.93633717 2.8747733 0.81469578
-0.93091792 2.870352 0.81278294
-0.92561328 2.8658671 0.81097066
-0.92029989 2.8613746 0.80915648
-0.91506749 2.8568339 0.80741352
-0.90991777 2.8522446 0.80574596
-0.9045071 2.8477654 0.80386072
-0.8991155 2.843267 0.8019948
-0.89378703 2.8387277 0.80018824
-0.88845193 2.8341818 0.7983793
-0.88328403 2.8295496 0.79671526
-0.87814486 2.8248949 0.79507869
-0.87299895 2.8202341 0.79344112
-0.8680473 2.8154767 0.79196972
-0.86309707 2.8107107 0.79050285
-0.85815686 2.8059318 0.78904742
-0.85340017 2.801064 0.78774792
-0.84837252 2.7963068 0.78622645
-0.84322006 2.7915943 0.78460318
-0.83827204 2.7867837 0.78315538
-0.8333199 2.7819669 0.78170711
-0.82843804 2.7771125 0.78031909
-0.82373238 2.772176 0.77908182
-0.81902313 2.7672338 0.7778433
-0.81439966 2.7622485 0.7766782
-0.80993396 2.7571907 0.77564806
-0.80546594 2.7521284 0.77461648
-1.2228405 3.1276844 0.91610932
-1.2196988 3.1224918 0.91601354
-1.2162998 3.11746 0.91568601
-1.2129008 3.1124265 0.91535902
-1.2095001 3.1073918 0.91503149
-1.2060984 3.102355 0.91470379
-1.2021563 3.0976491 0.91388929
-1.1981643 3.092968 0.91303229
-1.1941693 3.0882838 0.91217369
-1.1901708 3.0835953 0.91131604
-1.1861817 3.0788972 0.91046649
-1.1819963 3.0743115 0.90944433
-1.1774989 3.0699053 0.90814513
-1.1729958 3.0654936 0.90684527
-1.16852 3.0610583 0.90557116
-1.1640589 3.0566065 0.90431345
-1.1595922 3.0521502 0.90305483
-1.1549768 3.0477726 0.90166557
-1.1500711 3.0435557 0.90002286
-1.1451585 3.0393314 0.89837682
-1.1402383 3.0351017 0.89672887
-1.1353592 3.030838 0.89512151
-1.1305006 3.0265529 0.8935346
-1.1256328 3.0222635 0.89194483
-1.1205231 3.0180998 0.89014596
-1.1152371 3.0140245 0.88819456
-1.109942 3.009943 0.88623959
-1.1046619 3.0058401 0.88430291
-1.0994483 3.0016885 0.88243043
-1.0942266 2.9975307 0.88055289
-1.0890104 2.9933574 0.87868732
-1.0838156 2.9891615 0.87684244
-1.078269 2.9851441 0.87469625
-1.0727315 2.9811094 0.87256223
-1.0672865 2.9770117 0.87051421
-1.0618323 2.9729064 0.86846268
-1.0563926 2.9687812 0.86642873
-1.0510403 2.9645977 0.86447495
-1.0456786 2.9604056 0.86251801
-1.0403131 2.9562054 0.86056322
-1.0347204 2.952111 0.8584156
-1.0291173 2.9480088 0.85626364
-1.0235575 2.943871 0.85415435
-1.0180762 2.9396801 0.85211784
-1.0125846 2.9354823 0.8500765
-1.0071549 2.9312406 0.84809476
-1.0017859 2.9269569 0.84616858
-0.9964084 2.9226654 0.84424025
-0.99104863 2.9183533 0.84233117
-0.98549098 2.9141278 0.84025621
-0.97992235 2.9098961 0.83817744
-0.97447193 2.9055936 0.83620453
-0.9690448 2.9012671 0.83425665
-0.96360964 2.8969326 0.83230609
-0.95831579 2.892519 0.83047956
-0.95302224 2.8880932 0.82865822
-0.94773436 2.8836551 0.82684523
-0.94258106 2.8791404 0.82515144
-0.9373275 2.8746641 0.8233766
-0.93190116 2.8702588 0.82145947
-0.9266054 2.8657811 0.81965578
-0.92130119 2.8612962 0.81785041
-0.91605932 2.8567715 0.81610179
-0.91091943 2.8521903 0.81444299
-0.90577281 2.8476007 0.81278163
-0.90071273 2.842963 0.811198
-0.89572829 2.83828 0.80968058
-0.89073849 2.8335922 0.80816269
-0.88585478 2.8288462 0.80673707
-0.88102883 2.8240671 0.80536199
-0.87592793 2.8194022 0.80376166
-0.87094772 2.8146739 0.80226475
-0.86601108 2.8099189 0.80080718
-0.86106658 2.8051572 0.79934794
-0.8562966 2.8003113 0.79803628
-0.85154682 2.79545 0.79674464
-0.84679157 2.7905824 0.79545152
-0.84222531 2.7856266 0.79431725
-0.83766317 2.7806628 0.79318911
-0.83309954 2.7756939 0.79206216
-0.82872719 2.7706363 0.79109663
-0.82435256 2.7655754 0.79013133
-0.81998366 2.7605054 0.78917247
-0.81579787 2.7553549 0.78836763
-0.81160963 2.7502 0.78756136
-0.81297541 2.7427719 0.79132581
-0.82044256 2.7328849 0.80009353
-0.81646556 2.7276726 0.79945058
-0.81248587 2.7224562 0.79880714
-0.77529591 2.7030654 0.78151506
-1.2109705 3.127809 0.9158296
-1.2083519 3.1222734 0.91621369
-1.2049924 3.117202 0.9159286
-1.2015843 3.1121588 0.91560066
-1.1981829 3.1071088 0.91527885
-1.1947823 3.102057 0.91495973
-1.1913284 3.0970352 0.91459191
-1.1873252 3.0923455 0.91373378
-1.1833304 3.087646 0.91288495
-1.1793511 3.0829318 0.91205204
-1.175369 3.0782135 0.91121894
-1.1713842 3.0734921 0.91038513
-1.1671505 3.0689135 0.90933126
-1.1626868 3.0644641 0.90807426
-1.1582177 3.06001 0.90681684
-1.1537436 3.0555511 0.90555841
-1.1493019 3.0510647 0.90433151
-1.1448694 3.0465662 0.90311551
-1.1403307 3.0421209 0.90180755
-1.135419 3.0378826 0.90017509
-1.1305602 3.0336044 0.898592
-1.1256948 3.029319 0.8970058
-1.1208211 3.0250285 0.89541841
-1.1160061 3.020695 0.89388537
-1.1111941 3.016351 0.89235735
-1.1062562 3.0120666 0.8907249
-1.1010101 3.0079451 0.88882452
-1.0957931 3.0037954 0.88695365
-1.090567 2.9996381 0.88508087
-1.0853828 2.9954472 0.88324821
-1.0802394 2.9912224 0.88145578
-1.0750879 2.9869912 0.87966001
-1.0699688 2.9827311 0.87789714
-1.0646908 2.9785452 0.87600106
-1.0592368 2.974443 0.87395495
-1.0538224 2.9703062 0.87194967
-1.0484691 2.9661252 0.87000155
-1.0431074 2.9619365 0.86804986
-1.0377913 2.9577124 0.86614323
-1.0325316 2.9534464 0.86428881
-1.0272642 2.9491742 0.86243272
-1.0220306 2.9448721 0.86060953
-1.0165521 2.9406855 0.85857987
-1.0110631 2.936492 0.85654664
-1.0056499 2.9322474 0.85458326
-1.0002841 2.9279666 0.85266447
-0.99490935 2.9236794 0.85074186
-0.9896251 2.9193351 0.84890246
-0.9843716 2.9149635 0.84709257
-0.9791097 2.9105852 0.84528106
-0.97395337 2.9061451 0.84356153
-0.9686684 2.9017575 0.84173858
-0.96323895 2.897429 0.83979613
-0.95795065 2.8930202 0.83797795
-0.952663 2.8886003 0.83616376
-0.94737911 2.8841681 0.83435744
-0.94223237 2.8796592 0.83267152
-0.93707699 2.875144 0.83098274
-0.93194616 2.8706083 0.82931828
-0.9269312 2.8660066 0.82775468
-0.92190999 2.8613992 0.82618958
-0.91692954 2.8567638 0.82466245
-0.91191864 2.8521345 0.82311291
-0.90677994 2.8475533 0.82146007
-0.90170979 2.8429306 0.81986833
-0.89673579 2.8382554 0.81836021
-0.89175397 2.8335757 0.81685001
-0.88686019 2.8288462 0.81541651
-0.88204259 2.8240738 0.81404883
-0.87721825 2.8192973 0.81268042
-0.87250018 2.8144662 0.81140167
-0.86783797 2.8096018 0.81017339
-0.8631714 2.8047326 0.80894399
-0.85862261 2.7998052 0.80781448
-0.85411716 2.7948523 0.80672449
-0.8496086 2.7898943 0.80563313
-0.84510529 2.7849274 0.80455005
-0.84055454 2.779974 0.80342859
-0.83599979 2.7750161 0.80230719
-0.83160281 2.7699854 0.80131948
-0.82723808 2.7649353 0.80035919
-0.82287037 2.7598817 0.79939842
-0.81866789 2.7547536 0.79857594
-0.81448942 2.7496104 0.79777443
-0.8103084 2.7444644 0.79697335
-0.82187831 2.7329097 0.80907148
-0.81802291 2.7276597 0.80852604
-0.81416583 2.7224069 0.80797935
-0.81034899 2.7171357 0.80746841
-0.77960426 2.7020562 0.79285556
-0.77598625 2.6966572 0.7925241
-1.2016618 3.1334915 0.91515726
-1.1990379 3.1279414 0.91554064
-1.1964138 3.1223936 0.91592467
-1.1936512 3.1169357 0.91618168
-1.1902438 3.1118767 0.91586208
-1.186837 3.1068153 0.91554219
-1.1834282 3.1017525 0.91522187
-1.1800239 3.0966866 0.91490602
-1.1764888 3.091697 0.91447484
-1.1725019 3.0869765 0.91364169
-1.1685125 3.0822535 0.91280764
-1.1645292 3.0775208 0.91198242
-1.1605637 3.0727732 0.91117358
-1.156595 3.0680218 0.91036528
-1.1523646 3.0634191 0.90932548
-1.1479069 3.0589445 0.90808755
-1.1434716 3.0544477 0.90687394
-1.1390319 3.0499465 0.90565753
-1.1345872 3.0454402 0.90443987
-1.1301826 3.0409038 0.90326107
-1.1257547 3.0363729 0.90206468
-1.1208831 3.032088 0.90048039
-1.1160338 3.0277796 0.89892089
-1.1112232 3.0234399 0.89739758
-1.1064057 3.0190949 0.89587241
-1.1015878 3.0147407 0.89435107
-1.0968312 3.0103433 0.89288598
-1.0920691 3.0059383 0.89141989
-1.0869075 3.0017462 0.88960963
-1.0817548 2.9975374 0.88781148
-1.0766081 2.9933131 0.88602144
-1.071453 2.9890838 0.8842302
-1.0663654 2.9848073 0.88249999
-1.0612932 2.9805098 0.88078839
-1.0562146 2.9762075 0.87907392
-1.0511923 2.971863 0.87741309
-1.0459 2.9676514 0.87552387
-1.0405378 2.9634664 0.87357765
-1.0352467 2.9592314 0.8716982
-1.0299873 2.9549675 0.8698495
-1.0247188 2.9506984 0.86799771
-1.0195256 2.9463789 0.86621386
-1.0143614 2.9420331 0.86445957
-1.0091881 2.9376814 0.86270243
-1.0040948 2.9332788 0.86101723
-0.99878418 2.9289751 0.85915065
-0.99341196 2.9246922 0.85723448
-0.98814315 2.9203446 0.85541242
-0.98289251 2.9159775 0.85360998
-0.97763401 2.9116042 0.8518039
-0.97249132 2.907162 0.8501004
-0.96735501 2.9027066 0.84840733
-0.96221137 2.8982441 0.8467114
-0.95719451 2.8937106 0.84512633
-0.95217216 2.8891697 0.84353983
-0.94702464 2.8846793 0.8418532
-0.94188339 2.8801761 0.84017372
-0.9367345 2.8756666 0.83849257
-0.93160695 2.8711374 0.83683312
-0.92659771 2.8665416 0.83527666
-0.92158204 2.8619401 0.83371902
-0.91660464 2.8573122 0.83219564
-0.91172963 2.8526261 0.83076292
-0.90684831 2.8479357 0.82932729
-0.90201879 2.8432128 0.82793909
-0.89727789 2.8384416 0.82662648
-0.89253241 2.8336639 0.82531458
-0.88784879 2.8288512 0.82405585
-0.88305253 2.8240814 0.82270747
-0.87823796 2.8193119 0.82134575
-0.87350869 2.8144968 0.82005864
-0.8688553 2.8096411 0.81883734
-0.86419636 2.8047791 0.81761461
-0.8596366 2.7998679 0.81647527
-0.85513997 2.7949216 0.81539154
-0.85063863 2.7899721 0.8143068
-0.84624332 2.7849705 0.81331056
-0.84190404 2.7799387 0.81236386
-0.83756065 2.7749038 0.81141549
-0.83332717 2.7698169 0.81055939
-0.82914436 2.7647038 0.8097474
-0.82495922 2.7595866 0.80893397
-0.82088614 2.7544184 0.80821562
-0.81686127 2.7492268 0.80753714
-0.81283325 2.7440314 0.80685914
-0.82289791 2.7331014 0.81768227
-0.81904942 2.7278597 0.81713969
-0.81519902 2.7226148 0.81659704
-0.81136858 2.7173595 0.81607211
-0.8076781 2.7120459 0.81566107
-0.80398619 2.7067304 0.81525028
-0.7824465 2.7016165 0.80296826
-0.77883679 2.696229 0.80263948
-1.1896709 3.133642 0.91485727
-1.1870334 3.1280863 0.91523302
-1.1843959 3.1225326 0.91560853
-1.1817596 3.1169808 0.91598547
-1.178862 3.1115925 0.91612566
-1.1754539 3.1065168 0.91581267
-1.1720468 3.101438 0.91550142
-1.1686404 3.0963581 0.91518986
-1.1652311 3.0912759 0.91487712
-1.1616446 3.0862999 0.91440803
-1.157674 3.0815508 0.91360021
-1.1537004 3.0767975 0.91279161
-1.1497254 3.0720403 0.9119826
-1.1457552 3.0672746 0.91118163
-1.1418053 3.0624926 0.91039854
-1.1376307 3.0578372 0.90942025
-1.1331837 3.053333 0.90820473
-1.1287602 3.0488074 0.90701336
-1.1243567 3.0442636 0.90584147
-1.1199471 3.0397162 0.90466768
-1.1155338 3.0351632 0.90349221
-1.1111671 3.0305758 0.90236229
-1.1064343 3.0261884 0.90091437
-1.1016107 3.0218434 0.89939016
-1.0968255 3.0174675 0.89790308
-1.092064 3.0130677 0.89644039
-1.0872964 3.0086639 0.89497626
-1.0825442 3.0042417 0.89352876
-1.077839 2.9997847 0.89212567
-1.0729767 2.9954052 0.89058924
-1.0678272 2.9911716 0.88880807
-1.0627606 2.9868824 0.88710332
-1.057686 2.9825883 0.88539386
-1.052603 2.9782856 0.88368273
-1.0476112 2.9739258 0.88205457
-1.0426123 2.9695587 0.88042307
-1.0376065 2.9651859 0.8787896
-1.0326822 2.9607608 0.87722987
-1.0274444 2.9564888 0.87540549
-1.0221763 2.9522207 0.8735587
-1.0170066 2.9478922 0.87180126
-1.0118414 2.9435499 0.8700515
-1.0066682 2.9391997 0.86829865
-1.0015967 2.9347892 0.86663657
-0.99652851 2.9303663 0.86498171
-0.9914524 2.9259365 0.86332273
-0.98647964 2.9214451 0.86175674
-0.981417 2.9169903 0.8601169
-0.97616088 2.9126201 0.85831797
-0.97103202 2.9081771 0.85663015
-0.96589839 2.9037249 0.85494286
-0.96076518 2.8992631 0.85325956
-0.95575362 2.8947325 0.85168213
-0.95073295 2.8901961 0.85010135
-0.94572508 2.8856447 0.84853417
-0.94082743 2.8810308 0.84706372
-0.93592453 2.8764117 0.8455919
-0.93103939 2.8717744 0.84413916
-0.92625779 2.8670793 0.84277552
-0.92125493 2.8624797 0.84123051
-0.91627979 2.8578584 0.83971238
-0.91141093 2.8531795 0.83828491
-0.90653461 2.8484938 0.83685619
-0.90170628 2.8437788 0.8354699
-0.89697206 2.8390124 0.83416492
-0.89223093 2.8342416 0.83285737
-0.88754821 2.8294365 0.83160126
-0.88294816 2.8245869 0.83041567
-0.87834436 2.8197324 0.82923132
-0.87380457 2.814842 0.82810158
-0.86934012 2.8099117 0.8270371
-0.86487341 2.8049769 0.82597125
-0.86047542 2.8000047 0.82496756
-0.85614789 2.7949972 0.8240214
-0.85166675 2.7900503 0.82295191
-0.84725952 2.7850647 0.8219468
-0.84292692 2.7800419 0.82100374
-0.83859092 2.7750142 0.82006013
-0.83434629 2.7699428 0.81919378
-0.83017081 2.7648382 0.8183856
-0.82599187 2.7597299 0.81757718
-0.82190794 2.7545774 0.81684697
-0.81788921 2.7493939 0.81617177
-0.81386667 2.7442081 0.81549662
-0.82357025 2.7334321 0.8259865
-0.81980681 2.7281659 0.82551068
-0.81604242 2.7228975 0.82503647
-0.81228018 2.7176249 0.82456464
-0.80865532 2.7122953 0.82420397
-0.80501395 2.7069714 0.82383084
-0.78386992 2.7017272 0.81189972
-0.78032482 2.6963263 0.81161958
-0.77684504 2.6908984 0.81139284
-1.1785767 3.1404238 0.9126662
-1.1771597 3.1340847 0.91413897
-1.1749649 3.1282382 0.91491592
-1.1723202 3.1226735 0.91528898
-1.1696703 3.1171155 0.91565758
-1.1670197 3.1115601 0.91602379
-1.1640416 3.1062059 0.91609818
-1.1606269 3.1011178 0.91578615
-1.1572164 3.096025 0.91547871
-1.1538107 3.0909274 0.91517645
-1.1504041 3.0858276 0.91487277
-1.1468194 3.080832 0.91441464
-1.142843 3.0760663 0.91361058
-1.1388868 3.0712824 0.91282803
-1.1349293 3.0664954 0.91204518
-1.1309686 3.0617049 0.91126186
-1.1270149 3.056905 0.91048598
-1.1229303 3.0521767 0.90959823
-1.1185189 3.0476303 0.90842682
-1.1141032 3.0430796 0.90725285
-1.1097174 3.0385044 0.90610933
-1.1053447 3.0339139 0.90497893
-1.1009672 3.02932 0.90384829
-1.0965931 3.0247166 0.90272266
-1.0920584 3.020195 0.90146017
-1.0872916 3.0157962 0.89999837
-1.0825176 3.0113916 0.89853519
-1.0777972 3.0069487 0.89712065
-1.0730859 3.0024917 0.89571893
-1.0683695 2.9980292 0.89431506
-1.0636855 2.99354 0.89294249
-1.0590312 2.9890265 0.89159894
-1.0540779 2.9846654 0.89000058
-1.049024 2.9803486 0.88832062
-1.0440294 2.9759891 0.88669413
-1.0390276 2.9716234 0.88506621
-1.0340402 2.9672406 0.88345444
-1.0291224 2.9628115 0.88190615
-1.0241989 2.958375 0.88035589
-1.0192811 2.9539261 0.87881476
-1.0144414 2.9494288 0.87734437
-1.0093232 2.945065 0.87563866
-1.0041628 2.9407113 0.87390202
-0.99910116 2.9362984 0.87225336
-0.9940322 2.9318781 0.87060201
-0.98896891 2.9274452 0.86895877
-0.98400474 2.9229527 0.86740375
-0.97903365 2.9184542 0.86584592
-0.97406811 2.9139431 0.86429781
-0.96920139 2.9093745 0.86283457
-0.96432757 2.9047999 0.86137009
-0.9593246 2.9002798 0.85979956
-0.95431435 2.8957531 0.85822785
-0.94929826 2.8912215 0.8566528
-0.94430143 2.8866692 0.85509896
-0.93940634 2.8820596 0.85363382
-0.93450552 2.8774438 0.85216725
-0.92963141 2.872807 0.85072637
-0.92485267 2.8681171 0.84936756
-0.92006749 2.863421 0.84800726
-0.91531754 2.8587003 0.8466782
-0.91065413 2.8539324 0.84542596
-0.90598738 2.8491585 0.84417224
-0.90135831 2.8443601 0.84295356
-0.89666647 2.839582 0.84168458
-0.89193016 2.8348167 0.84038317
-0.88724834 2.8300204 0.83912826
-0.88265336 2.825177 0.83794892
-0.8780545 2.8203278 0.83676863
-0.87351525 2.8154449 0.83564001
-0.86905611 2.8105206 0.8345806
-0.86459386 2.8055918 0.83351946
-0.8601957 2.8006289 0.8325156
-0.85587287 2.7956271 0.83157343
-0.85154504 2.790621 0.83063054
-0.84728676 2.7855804 0.82974756
-0.84310055 2.7805042 0.82892388
-0.83890998 2.7754247 0.82809925
-0.83478898 2.7703106 0.82733351
-0.83073938 2.7651627 0.82662612
-0.82668686 2.7600112 0.82591975
-0.82270128 2.754828 0.82526869
-0.81878936 2.7496116 0.82467866
-0.81487387 2.7443926 0.82408786
-0.82331288 2.7341392 0.83351356
-0.81955498 2.728879 0.83304173
-0.81579441 2.7236168 0.832569
-0.81203318 2.7183523 0.8320955
-0.80840605 2.7130311 0.83173245
-0.80478501 2.7077067 0.83137411
-0.80116224 2.7023799 0.83101553
-0.78489214 2.7019935 0.82048243
-0.78135204 2.6966012 0.82020372
-0.77786058 2.6911879 0.81996483
-0.77446097 2.685739 0.81979859
-1.1653904 3.1412635 0.91139817
-1.1639444 3.1349287 0.91284662
-1.1625009 3.1286011 0.91429293
-1.1601658 3.1228313 0.9149459
-1.1575114 3.1172607 0.91531324
-1.1548574 3.1116924 0.91568136
-1.1521939 3.106132 0.91604066
-1.1491798 3.1007857 0.9160881
-1.1457666 3.0956795 0.91578537
-1.1423531 3.0905709 0.91548198
-1.1389409 3.0854607 0.9151814
-1.1355352 3.080343 0.91488773
-1.1320003 3.0753014 0.91447967
-1.1280345 3.070509 0.91369587
-1.1240721 3.0657101 0.91291708
-1.1201324 3.0608921 0.91216093
-1.1161904 3.056072 0.91140318
-1.1122448 3.0512481 0.91064489
-1.1082654 3.0464394 0.90985918
-1.1038905 3.0418508 0.90873069
-1.0995113 3.0372584 0.90760171
-1.0951276 3.0326614 0.90647036
-1.0907804 3.0280364 0.90537453
-1.0864403 3.0234003 0.90428728
-1.0820971 3.01876 0.90319932
-1.077755 3.014111 0.9021163
-1.0730455 3.0096588 0.90071726
-1.0683285 3.0052011 0.89931649
-1.0636067 3.0007384 0.89791316
-1.0589517 2.9962299 0.89657247
-1.0542934 2.9917142 0.89523083
-1.0496298 2.987195 0.89388776
-1.0450127 2.9826417 0.89258808
-1.0404133 2.9780698 0.89130628
-1.0354427 2.9736874 0.88971078
-1.0304828 2.969291 0.88812762
-1.0255622 2.9648619 0.88658243
-1.0206364 2.9604273 0.88503623
-1.0157443 2.9559662 0.88352156
-1.0109032 2.9514685 0.88205379
-1.0060546 2.9469657 0.88058436
-1.0012336 2.94244 0.87914044
-0.99647212 2.9378755 0.87774968
-0.99153894 2.9333882 0.8762185
-0.98649657 2.9289479 0.87459797
-0.98153198 2.9244578 0.87304628
-0.97656047 2.9199629 0.8714934
-0.97161537 2.9154446 0.86996531
-0.96674728 2.9108791 0.86850685
-0.96187419 2.9063077 0.86704552
-0.95702678 2.9017141 0.86561108
-0.95225781 2.8970742 0.86424392
-0.94748312 2.8924282 0.8628763
-0.94273466 2.8877614 0.86153388
-0.93798709 2.8830872 0.86019415
-0.9330892 2.8784754 0.858733
-0.92822659 2.8738391 0.85730433
-0.92345017 2.8691525 0.85594976
-0.91866809 2.8644612 0.85459477
-0.91392648 2.8597417 0.85327524
-0.90926737 2.8549771 0.85202867
-0.90460134 2.8502085 0.85077828
-0.89998108 2.8454108 0.84956843
-0.89543873 2.8405704 0.84842676
-0.89089239 2.8357255 0.84728199
-0.88639265 2.8308525 0.84618086
-0.88196927 2.8259389 0.84514314
-0.87754136 2.8210211 0.84410489
-0.87316376 2.8160751 0.84310985
-0.86877275 2.8111289 0.8421064
-0.86431456 2.8062062 0.84104985
-0.8555966 2.7962556 0.83910763
-0.85127527 2.7912555 0.83816975
-0.84701318 2.7862241 0.8372829
-0.84283215 2.7811542 0.83646351
-0.83864617 2.7760799 0.83564293
-0.83452189 2.7709758 0.83487362
-0.830477 2.7658341 0.83416986
-0.82643044 2.760689 0.83346754
-0.82244015 2.7555153 0.83281171
-0.81853271 2.7503045 0.83222497
-0.81462294 2.7450914 0.83163637
-0.823057 2.7348454 0.84102488
-0.81930268 2.7295909 0.84055471
-0.81554782 2.7243347 0.84008366
-0.81178969 2.7190766 0.83961207
-0.80815715 2.7137656 0.83924234
-0.80454028 2.708447 0.8388859
-0.80092114 2.7031269 0.83852971
-0.78515446 2.7025535 0.82843286
-0.78166091 2.6971517 0.82818776
-0.77819616 2.6917379 0.82796746
-0.77482581 2.6862869 0.82782227
-1.1520318 3.1421719 0.91003335
-1.1505905 3.135819 0.91148633
-1.1491516 3.1294742 0.91293788
-1.1476933 3.1231506 0.9143675
-1.1452813 3.1174161 0.9149549
-1.1426129 3.1118419 0.9153139
-1.139944 3.1062696 0.915672
-1.1372762 3.1006989 0.91603106
-1.1342764 3.0953295 0.9160971
-1.1308655 3.0902057 0.91580319
-1.127453 3.0850794 0.91550785
-1.1240401 3.0799522 0.91521424
-1.1206275 3.0748224 0.91492176
-1.1171789 3.0697124 0.91459709
-1.1132319 3.0648906 0.91383976
-1.1092814 3.060065 0.91308099
-1.1053358 3.0552323 0.91232872
-1.1014129 3.0503812 0.91159785
-1.0974866 3.0455277 0.91086602
-1.0935588 3.0406704 0.91013491
-1.0892988 3.0359972 0.90911728
-1.0849565 3.0313623 0.90803164
-1.08061 3.0267243 0.90694416
-1.0762594 3.0220802 0.90585667
-1.0719534 3.017406 0.90481019
-1.0676482 3.0127244 0.9037658
-1.0633379 3.0080388 0.90272123
-1.0588727 3.0034308 0.90154529
-1.0542144 2.9989212 0.90020674
-1.049551 2.9944065 0.8988663
-1.0448931 2.9898798 0.89753491
-1.0402935 2.9853129 0.89625573
-1.0356888 2.9807422 0.89497513
-1.0310789 2.9761648 0.89369309
-1.0265312 2.9715483 0.89246637
-1.0219864 2.9669218 0.89124608
-1.0170727 2.9624801 0.88971537
-1.0122074 2.9580045 0.88822883
-1.007364 2.9535079 0.88676417
-1.0025133 2.9490066 0.88529783
-0.99771637 2.9444683 0.88387918
-0.99295342 2.9399049 0.88249224
-0.98818308 2.9353359 0.8811034
-0.98345703 2.9307356 0.8797546
-0.97877467 2.926106 0.87844437
-0.97408575 2.9214714 0.87713325
-0.96916288 2.916945 0.87562877
-0.96429592 2.9123821 0.87417364
-0.95942235 2.9078135 0.87271756
-0.95459312 2.903214 0.87130129
-0.94982535 2.898577 0.86993909
-0.94505066 2.8939333 0.86857432
-0.94031954 2.889262 0.86724907
-0.9356488 2.8845525 0.86597872
-0.93097442 2.8798382 0.86470616
-0.92634207 2.8750963 0.86347175
-0.92177212 2.870317 0.86229223
-0.91719884 2.8655329 0.8611117
-0.91253853 2.8607814 0.8598637
-0.90788203 2.8560209 0.85861951
-0.9032203 2.8512557 0.85737485
-0.89860743 2.8464606 0.85617453
-0.8940677 2.8416245 0.85503548
-0.88952416 2.8367839 0.85389644
-0.88503122 2.8319128 0.85280198
-0.88060993 2.8270035 0.85176778
-0.87618601 2.8220901 0.85073435
-0.87181365 2.817147 0.84974504
-0.86751062 2.8121669 0.84881455
-0.86320454 2.807183 0.84788454
-0.85895127 2.802171 0.84699893
-0.8547681 2.7971232 0.84617335
-0.85058218 2.7920709 0.84534657
-0.84644693 2.786993 0.84456223
-0.84238362 2.7818789 0.84383988
-0.83831877 2.7767615 0.84311658
-0.83425713 2.7716384 0.84239805
-0.83021683 2.7665024 0.84169763
-0.82617313 2.7613645 0.84099603
-0.82217991 2.7562006 0.84033775
-0.81827635 2.7509956 0.83975273
-0.81437039 2.7457886 0.83916676
-0.82237989 2.7357211 0.84817857
-0.81869495 2.7304466 0.84776354
-0.81500828 2.7251689 0.84734678
-0.8113209 2.7198896 0.8469305
-0.8077358 2.7145677 0.84659725
-0.80417073 2.709235 0.84628183
-0.80060565 2.7039011 0.84596545
-0.78490579 2.7033119 0.83595371
-0.78141695 2.6979167 0.83571076
-0.77794695 2.6925132 0.83548355
-0.77457875 2.6870677 0.83533764
-0.77121103 2.6816223 0.83519316
-1.1359838 3.1447001 0.90635502
-1.1370887 3.1367605 0.91005212
-1.1356192 3.1304193 0.91147745
-1.1341517 3.1240864 0.91290015
-1.1326853 3.1177604 0.91432095
-1.1303099 3.1119943 0.9149422
-1.1276262 3.1064155 0.91529173
-1.1249434 3.1008394 0.91564095
-1.1222608 3.0952649 0.91599095
-1.1193408 3.089833 0.91613233
-1.1159236 3.0846956 0.91583937
-1.1125134 3.0795517 0.91555476
-1.1091028 3.0744069 0.91526848
-1.105691 3.0692604 0.91498339
-1.1022779 3.0641127 0.91469806
-1.0984278 3.0592151 0.9140349
-1.0944979 3.054359 0.91330379
-1.0905648 3.0494993 0.91257221
-1.0866367 3.0446329 0.91184682
-1.0827314 3.0397501 0.91114098
-1.0788236 3.0348628 0.91043657
-1.0747681 3.0300539 0.90960658
-1.0704392 3.0253916 0.90854335
-1.0661319 3.0207114 0.90750116
-1.0618197 3.0160277 0.90645802
-1.0575049 3.011338 0.9054141
-1.0532396 3.0066159 0.90441459
-1.0489686 3.001889 0.90341407
-1.0446956 2.9971585 0.90241313
-1.0401744 2.9925544 0.90120405
-1.0355699 2.9879878 0.89992535
-1.0309603 2.9834151 0.89864713
-1.0263702 2.9788256 0.89738744
-1.0218251 2.9742036 0.89616859
-1.0172762 2.9695766 0.89494926
-1.0127268 2.9649415 0.89373326
-1.0082437 2.9602654 0.89257562
-1.0037551 2.9555845 0.89141637
-0.99897134 2.9510479 0.89001083
-0.99419987 2.9464972 0.88861841
-0.98943359 2.9419343 0.88723385
-0.98466206 2.9373662 0.88584906
-0.97995961 2.9327548 0.88452339
-0.97527486 2.9281263 0.88321769
-0.9705838 2.9234931 0.88190824
-0.96595383 2.9188213 0.88065267
-0.96134984 2.914129 0.87942326
-0.95674109 2.9094322 0.87819105
-0.95216137 2.9047127 0.87698716
-0.94739336 2.9000778 0.87562883
-0.94261962 2.8954384 0.87426829
-0.93790478 2.8907616 0.87296003
-0.93323618 2.8860543 0.87169391
-0.92856061 2.8813429 0.87042421
-0.92394418 2.8765962 0.86920655
-0.91937566 2.87182 0.86803007
-0.91480166 2.8670382 0.86685359
-0.91028148 2.8622255 0.86572266
-0.90581405 2.8573797 0.86463892
-0.90134156 2.8525312 0.86355209
-0.89692122 2.8476517 0.86251128
-0.89255559 2.8427417 0.86151785
-0.88815719 2.8378401 0.86049944
-0.88367212 2.8329716 0.85941237
-0.8792544 2.8280661 0.85838294
-0.8748315 2.8231566 0.85735261
-0.87046432 2.8182173 0.85636926
-0.86616462 2.8132412 0.85544211
-0.86186188 2.8082612 0.85451567
-0.85761243 2.8032529 0.85363483
-0.85343266 2.7982085 0.85281187
-0.84925097 2.7931609 0.85198867
-0.84511787 2.7880874 0.85120791
-0.84105772 2.7829776 0.85048771
-0.83699495 2.7778647 0.84976679
-0.83297837 2.7727282 0.84908521
-0.82903886 2.7675555 0.84846705
-0.82509816 2.7623801 0.84784788
-0.82119769 2.7571836 0.84726405
-0.81737876 2.7519505 0.84674722
-0.81355816 2.7467148 0.84623033
-0.82107568 2.7368519 0.85481423
-0.81739306 2.7315817 0.8544004
-0.8137098 2.7263081 0.85398579
-0.8100248 2.7210333 0.85357052
-0.80643827 2.7157166 0.85323673
-0.80287677 2.7103887 0.85292178
-0.79931408 2.7050586 0.85260707
-0.78455073 2.7041111 0.84337109
-0.78109795 2.698709 0.84315604
-0.77765489 2.6933024 0.84294814
-0.77431172 2.6878555 0.84281939
-0.77096832 2.6824083 0.84269089
-1.1195079 3.1474371 0.90237892
-1.1207643 3.1393881 0.90620309
-1.1219907 3.1313832 0.90998983
-1.1204894 3.1250548 0.91138512
-1.1189921 3.1187334 0.91277874
-1.1174952 3.1124206 0.91417092
-1.115234 3.1065736 0.91489303
-1.1125475 3.1009831 0.9152444
-1.1098535 3.095401 0.91558796
-1.1071562 3.0898218 0.91592771
-1.1043701 3.0842974 0.91619062
-1.1009523 3.0791433 0.91590434
-1.0975331 3.0739882 0.91561931
-1.0941243 3.0688252 0.91534352
-1.0907155 3.0636611 0.91506678
-1.0873052 3.0584953 0.91479099
-1.0836253 3.0534818 0.91428322
-1.0797148 3.0485952 0.91357905
-1.0758022 3.0437062 0.91287416
-1.0718862 3.0388145 0.91216832
-1.0679781 3.0339146 0.91147035
-1.0640912 3.0289979 0.91079217
-1.0602019 3.0240781 0.91011351
-1.0559802 3.0193367 0.909154
-1.0516919 3.0146267 0.90813923
-1.0474195 3.0099018 0.90713966
-1.0431433 3.0051723 0.90613914
-1.0388726 3.0004334 0.90514654
-1.0346419 2.995667 0.90418965
-1.0304093 2.990896 0.90323305
-1.0261717 2.9861219 0.90227544
-1.0216645 2.9814842 0.90109092
-1.0171139 2.9768612 0.89987391
-1.0125599 2.9722335 0.89865649
-1.0080371 2.9675825 0.89746767
-1.0035492 2.9629052 0.89631099
-0.9990561 2.9582233 0.89515245
-0.99457681 2.9535282 0.8940087
-0.99015164 2.9487967 0.89291281
-0.98572046 2.9440632 0.89181453
-0.98114389 2.939395 0.89059639
-0.9764629 2.9347734 0.88929433
-0.97177452 2.9301474 0.88798887
-0.96708137 2.925514 0.88668323
-0.96247381 2.9208317 0.88545102
-0.95786834 2.916141 0.88422233
-0.95325744 2.9114442 0.88299412
-0.94872206 2.9067039 0.88183057
-0.94419938 2.9019506 0.88067961
-0.93967158 2.897192 0.8795284
-0.93521011 2.892395 0.87843323
-0.93077099 2.8875804 0.87735927
-0.92615104 2.8828461 0.87613851
-0.92154771 2.8780956 0.87493557
-0.91697943 2.8733222 0.87376267
-0.91240662 2.8685436 0.87258929
-0.90790009 2.8637264 0.87147266
-0.90343332 2.8588839 0.87039179
-0.89896226 2.8540368 0.86930948
-0.89455342 2.8491564 0.86828011
-0.89018959 2.8442476 0.86728978
-0.88582033 2.8393359 0.86629856
-0.88151038 2.8343911 0.86535764
-0.87724912 2.8294196 0.86445767
-0.87298328 2.8244438 0.86355656
-0.86877108 2.8194392 0.86270118
-0.86461371 2.814405 0.86189133
-0.86045247 2.8093688 0.861081
-0.85627764 2.8043332 0.86026049
-0.85209954 2.7992938 0.85944062
-0.84791881 2.7942502 0.85862029
-0.84379047 2.78918 0.85784286
-0.83973366 2.784075 0.85712528
-0.83567327 2.7789662 0.85640723
-0.83166009 2.7738338 0.85572779
-0.82772303 2.7686656 0.85511178
-0.82378393 2.763495 0.85449481
-0.81988513 2.7583034 0.85391235
-0.81606877 2.7530732 0.85339791
-0.81225127 2.7478426 0.85288221
-0.81977332 2.7379808 0.86144012
-0.81609386 2.7327144 0.861027
-0.81241316 2.7274454 0.86061406
-0.80873007 2.7221749 0.8602007
-0.80514336 2.7168641 0.85986429
-0.80158424 2.7115395 0.85955101
-0.79802418 2.7062144 0.85923827
-0.78325248 2.7052779 0.85002446
-0.77980322 2.6998796 0.84981036
-0.77635783 2.694479 0.84959865
-0.77301627 2.6890366 0.84947062
-0.7696743 2.6835945 0.84934205
-0.76633328 2.6781511 0.84921473
-1.1025168 3.1431301 0.90075594
-1.1050562 3.1343093 0.90568215
-1.1062905 3.1263068 0.90946031
-1.105176 3.1197383 0.9111889
-1.1036656 3.1134176 0.91257036
-1.1021358 3.1071172 0.91393083
-1.1000688 3.1011436 0.91482335
-1.0973657 3.0955505 0.91516376
-1.0946641 3.0899599 0.91550398
-1.0919588 3.0843718 0.91584176
-1.0892459 3.0787909 0.91617149
-1.0859416 3.0735548 0.91599011
-1.082525 3.0683813 0.91571456
-1.0791076 3.0632069 0.91543734
-1.0757006 3.0580256 0.91517061
-1.0722938 3.0528417 0.9149034
-1.0688541 3.0476744 0.91460973
-1.0649331 3.0427763 0.91390556
-1.0610418 3.0378566 0.91322827
-1.0571468 3.0329351 0.91254985
-1.0532503 3.0280104 0.91187072
-1.0493635 3.0230751 0.9112016
-1.0454956 3.0181255 0.91055125
-1.041589 3.0131936 0.90986902
-1.0373067 3.0084617 0.90886903
-1.0330601 3.0037034 0.90790212
-1.0288246 2.9989338 0.90694666
-1.0245849 2.9941602 0.90599006
-1.0203575 2.9893734 0.90504676
-1.0161654 2.9845629 0.90413493
-1.01197 2.9797485 0.90322214
-1.0077703 2.9749305 0.90230817
-1.0033438 2.9702253 0.90120518
-0.99885118 2.9655468 0.90004969
-0.99435312 2.9608645 0.89889306
-0.98989999 2.9561532 0.89777499
-0.98546958 2.9514225 0.89667964
-0.98103476 2.946686 0.8955828
-0.97662628 2.9419317 0.89451104
-0.9722594 2.9371481 0.89347547
-0.96788716 2.9323606 0.89243871
-0.96352601 2.9275622 0.89141339
-0.95899355 2.922842 0.89024764
-0.95438665 2.9181523 0.88902307
-0.94977957 2.9134545 0.88780153
-0.94525898 2.9087067 0.88665348
-0.94073433 2.9039543 0.88550586
-0.93620467 2.8991969 0.88435656
-0.93176275 2.8943908 0.88328093
-0.92732197 2.8895776 0.88220912
-0.92287624 2.8847597 0.88113707
-0.91850889 2.8798993 0.88013083
-0.91415197 2.8750267 0.87913531
-0.90979207 2.8701503 0.8781386
-0.90550047 2.8652353 0.87720221
-0.90105498 2.8603866 0.87614059
-0.89658415 2.8555427 0.87506139
-0.89218771 2.8506584 0.8740449
-0.88782418 2.845753 0.87305772
-0.88345701 2.8408434 0.87206906
-0.87915808 2.835896 0.87113982
-0.874897 2.8309278 0.87024152
-0.87063313 2.8259544 0.86934304
-0.86643088 2.8209486 0.86849838
-0.86227322 2.815918 0.86769074
-0.858114 2.810883 0.8668828
-0.85400951 2.8058195 0.86612231
-0.84995669 2.8007295 0.86540425
-0.84590179 2.795635 0.86468643
-0.84189582 2.7905161 0.86400914
-0.83794719 2.785368 0.8633793
-0.83399761 2.7802174 0.86275113
-0.83008939 2.7750452 0.86215675
-0.8262471 2.7698417 0.86161703
-0.82240266 2.7646358 0.86107683
-0.81857467 2.7594204 0.86055064
-0.81476074 2.7541959 0.86003667
-0.81094635 2.7489681 0.85952318
-0.81819165 2.739224 0.86783004
-0.8145746 2.7339361 0.86746693
-0.81095755 2.7286465 0.86710507
-0.80733937 2.7233546 0.86674267
-0.80380148 2.7180283 0.86644393
-0.80029196 2.7126904 0.86617029
-0.79673618 2.7073684 0.86585796
-0.78195709 2.7064431 0.856668
-0.77851021 2.7010491 0.85645366
-0.77506357 2.6956537 0.85624003
-0.77172303 2.6902168 0.85611176
-0.76838368 2.684778 0.85598397
-0.76504505 2.6793385 0.85585666
-0.76178724 2.6738672 0.85579371
-1.0826265 3.1404905 0.8966924
-1.0889891 3.1293769 0.90491045
-1.0902001 3.1213944 0.9086538
-1.0896456 3.1144874 0.91086388
-1.08812 3.1081688 0.9122296
-1.0865957 3.1018567 0.91359317
-1.0848113 3.0957072 0.91473007
-1.0820928 3.0901103 0.9150607
-1.0793751 3.0845149 0.91539139
-1.0766575 3.0789211 0.91572154
-1.0739394 3.0733299 0.91604984
-1.0708919 3.06793 0.91609561
-1.0674778 3.0627391 0.91582888
-1.0640639 3.0575464 0.91556215
-1.0606482 3.0523524 0.91529542
-1.0572431 3.0471518 0.9150368
-1.0538381 3.0419483 0.91477931
-1.0501842 3.0368829 0.91431189
-1.0462831 3.0319512 0.91363484
-1.0424113 3.0269985 0.91298383
-1.0385364 3.0220435 0.91233307
-1.0346593 3.0170865 0.91168159
-1.0307939 3.0121183 0.91104054
-1.0269462 3.0071361 0.91041696
-1.0229961 3.0022063 0.90970778
-1.0187508 2.9974301 0.90875208
-1.0145476 2.9926248 0.90783381
-1.0103488 2.9878109 0.90692246
-1.0061467 2.9829931 0.9060092
-1.0019648 2.9781606 0.90511501
-0.99781215 2.9733067 0.90424776
-0.99365604 2.9684484 0.90337956
-0.9894973 2.9635861 0.90251231
-0.98521799 2.958781 0.90154493
-0.98078322 2.9540493 0.90045005
-0.97634536 2.9493124 0.89935607
-0.97195947 2.9445422 0.89830786
-0.96758717 2.9397585 0.89727306
-0.96321291 2.9349701 0.89623797
-0.95887351 2.9301579 0.89523554
-0.954566 2.9253228 0.89426196
-0.95025563 2.9204845 0.89328647
-0.94596463 2.9156294 0.89233077
-0.94172287 2.9107449 0.8914175
-0.93726909 2.9059584 0.89033163
-0.93275464 2.9011943 0.88919759
-0.9283163 2.8963864 0.88812935
-0.92387319 2.8915741 0.88705921
-0.91943121 2.8867555 0.88599312
-0.91507673 2.8818886 0.88500118
-0.91071916 2.8770163 0.88400805
-0.90635705 2.8721414 0.8830142
-0.90208316 2.8672185 0.88209397
-0.8978107 2.8622906 0.88117713
-0.89353412 2.8573577 0.88025934
-0.88933575 2.8523841 0.87940705
-0.88515002 2.847399 0.87856698
-0.88096142 2.842411 0.87772685
-0.87680733 2.8374012 0.87691581
-0.87254751 2.8324344 0.87602162
-0.86828405 2.8274641 0.87512618
-0.86409211 2.8224573 0.87429041
-0.8599357 2.8174284 0.8734858
-0.85577732 2.8123963 0.87267953
-0.85168213 2.8073318 0.87192786
-0.84763014 2.8022437 0.87121195
-0.84357619 2.797152 0.87049603
-0.8395763 2.7920341 0.86982566
-0.8356297 2.7868884 0.86919892
-0.83168089 2.7817397 0.8685717
-0.82777828 2.7765689 0.86798263
-0.82393765 2.7713678 0.86744523
-0.82009447 2.7661648 0.86690575
-0.81628865 2.7609427 0.86639774
-0.81255358 2.7556884 0.86594808
-0.80881637 2.7504323 0.86549777
-0.81590199 2.7407537 0.87364751
-0.81228685 2.7354684 0.87328637
-0.80867082 2.7301815 0.87292492
-0.80505425 2.7248926 0.87256402
-0.80151802 2.7195685 0.87226743
-0.79800963 2.7142329 0.87199277
-0.79450041 2.7088959 0.87171835
-0.78026694 2.7077615 0.86298758
-0.77685368 2.7023582 0.86280018
-0.77344042 2.696955 0.86261135
-0.77011847 2.6915143 0.86249572
-0.76680011 2.6860726 0.86238319
-0.76348251 2.6806304 0.86227107
-0.76023203 2.6751614 0.86221242
-1.072539 3.1246021 0.90387529
-1.0737171 3.1166449 0.90757525
-1.073939 3.1092749 0.91044545
-1.0723774 3.1029685 0.91177851
-1.0708184 3.0966706 0.9131099
-1.0692598 3.0903795 0.9144401
-1.066726 3.084662 0.91493332
-1.0639923 3.0790622 0.91525418
-1.0612584 3.0734649 0.91557413
-1.0585253 3.0678687 0.91589355
-1.0557934 3.0622737 0.91621375
-1.0523919 3.057059 0.91596371
-1.0489807 3.0518489 0.91570723
-1.0455678 3.0466373 0.91544878
-1.042155 3.0414245 0.91519111
-1.0387522 3.0362048 0.91494203
-1.035349 3.0309827 0.91469485
-1.0315588 3.0259724 0.91411984
-1.027678 3.0210071 0.9134717
-1.0238264 3.0160227 0.91284764
-1.0199715 3.0110357 0.91222352
-1.0161151 3.0060458 0.91159946
-1.0122728 3.0010445 0.91098797
-1.0084463 2.9960306 0.91039181
-1.0045224 2.9910645 0.90971524
-1.0003146 2.9862437 0.90880269
-0.99615449 2.9813924 0.90793258
-0.99199629 2.9765356 0.90706605
-0.98783374 2.9716742 0.90619832
-0.98369783 2.9667954 0.90535349
-0.97958565 2.9618981 0.90453082
-0.97546953 2.9569974 0.90370697
-0.97135961 2.9520893 0.90289026
-0.96728837 2.9471557 0.9021076
-0.96291393 2.9423709 0.90107495
-0.95853376 2.9375823 0.90004057
-0.95421648 2.9327552 0.89906055
-0.94990492 2.9279201 0.89808816
-0.94559175 2.92308 0.89711481
-0.94132185 2.9182117 0.89618105
-0.93707615 2.9133267 0.89526796
-0.93282652 2.9084373 0.89435399
-0.92860699 2.9035282 0.8934679
-0.92442751 2.8985949 0.8926152
-0.92024463 2.8936574 0.8917622
-0.91600072 2.8887439 0.89086109
-0.91164583 2.8838775 0.88987154
-0.90728629 2.8790076 0.88888127
-0.90293497 2.8741274 0.88789862
-0.89866507 2.8692033 0.88698578
-0.89439088 2.8642752 0.88607037
-0.89011341 2.859344 0.8851549
-0.88593078 2.8543627 0.8843177
-0.88174391 2.8493793 0.88347948
-0.87755382 2.8443916 0.88264084
-0.87344676 2.8393607 0.88187033
-0.86934853 2.8343227 0.88110912
-0.8652457 2.8292813 0.88034582
-0.86121583 2.8242037 0.87964326
-0.85720456 2.819113 0.87895668
-0.85319144 2.8140185 0.87827057
-0.84923923 2.8088934 0.877635
-0.84530562 2.8037579 0.87701494
-0.84125197 2.7986696 0.87630045
-0.83725977 2.7935507 0.87563723
-0.83331352 2.7884068 0.8750124
-0.82936645 2.7832618 0.87438774
-0.82546914 2.7780905 0.87380344
-0.82162899 2.772892 0.87326705
-0.81778765 2.7676919 0.87273043
-0.81398582 2.7624705 0.87222642
-0.81025273 2.7572191 0.87177825
-0.80651724 2.7519653 0.87132907
-0.81361401 2.7422824 0.87946028
-0.81000006 2.737 0.87910026
-0.8063857 2.7317152 0.87874031
-0.80276966 2.7264285 0.8783803
-0.79923671 2.7211075 0.87808561
-0.79572958 2.7157733 0.87781173
-0.79222149 2.7104392 0.87753803
-0.77798069 2.7093136 0.86882961
-0.77456814 2.7039135 0.8686415
-0.77115607 2.6985121 0.8684541
-0.76783365 2.6930749 0.86833775
-0.76451814 2.6876349 0.86822665
-0.76120049 2.682194 0.86811388
-0.75794929 2.6767282 0.86805356
-0.75471437 2.6712558 0.86800635
-1.0555905 3.1200454 0.90247923
-1.0568005 3.1120729 0.90619326
-1.0579528 3.1041594 0.90984845
-1.0564507 3.0978096 0.91123128
-1.0548533 3.0915251 0.91252935
-1.053257 3.0852482 0.91382474
-1.0512563 3.0792108 0.91477424
-1.0485153 3.0736017 0.91509247
-1.0457646 3.0679989 0.91540194
-1.0430137 3.0623999 0.91571158
-1.0402648 3.0568013 0.91602105
-1.0372682 3.0513432 0.91611999
-1.0338578 3.0461152 0.91587013
-1.0304494 3.0408859 0.91562271
-1.0270398 3.035655 0.91537434
-1.0236286 3.0304229 0.9151262
-1.0202292 3.0251839 0.91488755
-1.0168296 3.0199425 0.91465038
-1.0129789 3.0149441 0.91403508
-1.0091207 3.0099459 0.9134146
-1.0052893 3.0049293 0.91281861
-1.0014576 2.9999089 0.91222268
-0.99762189 2.9948874 0.9116255
-0.9938035 2.9898529 0.91104412
-0.98999894 2.9848063 0.91047627
-0.98616916 2.9797714 0.90988767
-0.98200256 2.9749067 0.90902114
-0.97788721 2.97001 0.90819991
-0.97376871 2.9651108 0.90737629
-0.96964771 2.9602067 0.90655386
-0.96555853 2.9552813 0.90575886
-0.961487 2.9503419 0.90498048
-0.9574129 2.9453995 0.90420216
-0.9533509 2.9404469 0.90343547
-0.94932747 2.9354692 0.90270174
-0.94524169 2.9305186 0.90191817
-0.94092369 2.9256778 0.90094602
-0.93667442 2.9207964 0.9000327
-0.93242574 2.9159098 0.89912182
-0.92817235 2.9110203 0.89820951
-0.92397213 2.9060988 0.89734346
-0.91978902 2.9011638 0.89649189
-0.91560233 2.8962255 0.89564013
-0.91145337 2.8912642 0.89482033
-0.90733773 2.886282 0.89402956
-0.90321773 2.8812969 0.8932367
-0.89912122 2.8762956 0.89246523
-0.895073 2.8712678 0.89173478
-0.89097238 2.8662603 0.8909629
-0.88670993 2.8613214 0.89006293
-0.8825258 2.8563418 0.88922787
-0.87833816 2.8513589 0.88839155
-0.87415129 2.84637 0.8875584
-0.87005299 2.8413363 0.88679814
-0.86595303 2.8362992 0.88603789
-0.86184978 2.8312581 0.88527691
-0.8578335 2.8261747 0.88458627
-0.85382128 2.8210845 0.8839016
-0.84980744 2.8159916 0.88321698
-0.84586644 2.8108625 0.88259232
-0.84194386 2.8057215 0.88198394
-0.83801979 2.8005784 0.88137507
-0.83415633 2.7954042 0.88081652
-0.83032292 2.7902141 0.88028276
-0.82648778 2.7850225 0.87974852
-0.8227039 2.7798047 0.87925595
-0.81896061 2.7745683 0.87879777
-0.81521553 2.7693298 0.8783381
-0.81151003 2.764071 0.87791163
-0.80785751 2.7587881 0.8775273
-0.80420446 2.753504 0.8771435
-0.81128794 2.7438276 0.88523602
-0.80771571 2.7385299 0.88490993
-0.80410224 2.7332473 0.88454968
-0.80048758 2.7279642 0.88419068
-0.79695636 2.7226446 0.8838979
-0.79345113 2.7173128 0.88362563
-0.78994405 2.7119806 0.88335311
-0.7756955 2.7108641 0.8746655
-0.77228492 2.7054663 0.87447882
-0.76887357 2.7000668 0.87429142
-0.76555139 2.694633 0.87417388
-0.76223713 2.6891954 0.87406349
-0.75892019 2.6837573 0.87395144
-0.75566876 2.6782942 0.87388963
-0.75243503 2.6728246 0.87384266
-1.0286038 3.1212687 0.89261329
-1.0392839 3.1077719 0.90437263
-1.040453 3.0998495 0.90802777
-1.0403328 3.0926926 0.9105823
-1.0386958 3.086422 0.91184574
-1.0370593 3.080158 0.91310662
-1.0354229 3.0739028 0.91436529
-1.0329286 3.0681396 0.91489595
-1.030174 3.0625267 0.91520584
-1.0274056 3.0569224 0.91550457
-1.0246385 3.0513201 0.91580254
-1.021872 3.0457189 0.91610104
-1.0186989 3.0403445 0.91605788
-1.0152915 3.0350974 0.91581708
-1.0118849 3.0298498 0.91557872
-1.0084778 3.0245991 0.9153406
-1.0050718 3.0193479 0.91510266
-1.0016752 3.0140898 0.91487408
-0.99827909 3.0088294 0.91464692
-0.9944486 3.0037992 0.91405761
-0.9906128 2.9987686 0.9134655
-0.98680347 2.9937196 0.91289788
-0.98299342 2.988668 0.91232955
-0.97918063 2.983614 0.91176027
-0.97538823 2.9785457 0.91121012
-0.97160697 2.9734685 0.91066992
-0.96782386 2.968389 0.91012996
-0.96382105 2.9634182 0.90941006
-0.95974785 2.9584799 0.90863287
-0.95567083 2.9535367 0.90785503
-0.95159173 2.9485912 0.90707695
-0.94754928 2.9436228 0.90633076
-0.9435209 2.9386423 0.90559727
-0.93948936 2.9336579 0.90486324
-0.93547559 2.9286609 0.90414643
-0.9314965 2.9236429 0.90345818
-0.92751342 2.9186223 0.90276927
-0.92351842 2.9136031 0.90207148
-0.91933483 2.9086707 0.90122187
-0.91514742 2.9037349 0.90037125
-0.91095722 2.8987963 0.89951998
-0.90682679 2.8938227 0.89872015
-0.90270734 2.8888395 0.89792967
-0.89858407 2.8838539 0.89713866
-0.89450562 2.8788414 0.89638489
-0.89045334 2.8738124 0.89565468
-0.88640022 2.8687794 0.89492518
-0.88237369 2.8637297 0.89421976
-0.87839103 2.8586559 0.89354968
-0.87440598 2.8535788 0.89288074
-0.870435 2.848491 0.89222324
-0.86652243 2.8433735 0.89161366
-0.86256003 2.838274 0.89096665
-0.85846204 2.8332319 0.89021212
-0.85445148 2.8281457 0.88952959
-0.85043895 2.8230567 0.88884705
-0.84642345 2.817965 0.88816285
-0.84249538 2.8128304 0.88755018
-0.83857107 2.8076904 0.88694251
-0.83464628 2.8025477 0.88633436
-0.83079273 2.7973702 0.88578582
-0.82695925 2.7921813 0.88525277
-0.82312357 2.7869899 0.88472062
-0.81934708 2.7817693 0.88423598
-0.81560326 2.7765331 0.88377851
-0.81185848 2.7712953 0.88332027
-0.80816019 2.7660336 0.8829
-0.80450714 2.760752 0.88251758
-0.80085361 2.7554681 0.8821342
-0.80795521 2.7457826 0.89021391
-0.80440611 2.7404764 0.88990682
-0.80085796 2.7351685 0.8895998
-0.79730743 2.7298598 0.88929129
-0.79383391 2.7245185 0.88904452
-0.79037678 2.7191684 0.88881093
-0.78691876 2.7138176 0.88857657
-0.77279067 2.712657 0.88001192
-0.76941413 2.7072475 0.87985122
-0.7660374 2.7018373 0.87969053
-0.76273638 2.6963959 0.87959015
-0.75944209 2.690953 0.87949455
-0.75614756 2.6855078 0.87939894
-0.75290668 2.6800432 0.87934554
-0.74968225 2.6745713 0.87930471
-0.74645776 2.6690996 0.87926465
-1.0212849 3.1036632 0.90221989
-1.022409 3.0957682 0.90582454
-1.0235283 3.0878992 0.90941769
-1.0223218 3.0813723 0.91104394
-1.0206593 3.0751128 0.91228265
-1.0189817 3.0688715 0.91350412
-1.017242 3.0626717 0.91467243
-1.0144693 3.057054 0.91497213
-1.0116973 3.0514383 0.91527057
-1.0089134 3.045831 0.91555953
-1.0061284 3.0402262 0.91584677
-1.0033453 3.0346217 0.91613376
-1.0000978 3.0292716 0.91603392
-0.99669296 3.0240068 0.91580361
-0.99329007 3.018739 0.91557455
-0.98988688 3.0134697 0.91534764
-0.98648322 3.0081997 0.91511923
-0.98309034 3.0029223 0.91490042
-0.97969764 2.9976425 0.91468251
-0.97596961 2.9925382 0.91418809
-0.97215796 2.9874752 0.91362482
-0.96837264 2.9823947 0.9130851
-0.96458524 2.9773107 0.91254538
-0.96079499 2.9722261 0.91200495
-0.95702839 2.9671254 0.91148382
-0.95327216 2.9620166 0.91097343
-0.9495129 2.9569058 0.91046143
-0.94575816 2.9517891 0.90995413
-0.94173741 2.9468033 0.90923107
-0.93770355 2.9418204 0.90849733
-0.93366635 2.9368336 0.90776449
-0.92967206 2.9318206 0.9070667
-0.9256866 2.9268005 0.90637875
-0.92169988 2.9217749 0.90569073
-0.91773462 2.9167364 0.90502232
-0.91379899 2.9116783 0.90437865
-0.90986139 2.9066174 0.9037357
-0.90592903 2.9015501 0.9030968
-0.90204293 2.8964562 0.9024989
-0.8980732 2.8913991 0.90183359
-0.8939473 2.8864117 0.90104425
