# .PCD v0.7 - Point Cloud Data file format
VERSION 0.7
FIELDS x y z
SIZE 4 4 4
TYPE F F F
COUNT 1 1 1
WIDTH 1463
HEIGHT 1
VIEWPOINT 0 0 0 1 0 0 0
POINTS 1463
DATA ascii
-0.28680363 4.0777397 0.79569131
-0.28008914 4.0730219 0.7937488
-0.27334774 4.0683069 0.79179192
-0.26657605 4.0635977 0.78981841
-0.25971472 4.0589385 0.78778785
-0.26683024 4.0441546 0.79540926
-0.26230693 4.037818 0.79498816
-0.24821185 4.0383453 0.78797793
-0.22655615 4.0442204 0.77578139
-0.60740584 4.3538356 0.88268304
-0.60550696 4.3456001 0.88406903
-0.60357314 4.3374066 0.88542593
-0.60162121 4.3292422 0.88676709
-0.59967095 4.3210878 0.88810498
-0.59457475 4.3157358 0.88713169
-0.57740265 4.3210511 0.8773126
-0.57196045 4.3159499 0.87610167
-0.56651026 4.310843 0.87488842
-0.56105518 4.3057327 0.87367439
-0.55558354 4.3006239 0.87244993
-0.55006933 4.2955427 0.87119943
-0.54454792 4.2904558 0.86994511
-0.53902155 4.2853637 0.86869156
-0.53346819 4.2802844 0.86742055
-0.52788389 4.2752204 0.86612982
-0.52229148 4.2701511 0.86483687
-0.51669258 4.2650771 0.86354232
-0.51105487 4.260025 0.86222339
-0.50539947 4.2549763 0.86089426
-0.4997358 4.2499237 0.85956174
-0.49406466 4.2448649 0.85822785
-0.48834112 4.2398386 0.85685915
-0.48261231 4.2348065 0.85548919
-0.47687471 4.2297692 0.85411763
-0.47111633 4.2247376 0.85273361
-0.4653194 4.2197247 0.85132581
-0.45951456 4.2147088 0.84991467
-0.45370328 4.2096853 0.84850371
-0.44785196 4.2046804 0.84706682
-0.44197869 4.1996837 0.84561771
-0.43609878 4.1946797 0.84416699
-0.43020573 4.1896729 0.84271127
-0.42426214 4.1846957 0.84122211
-0.41831094 4.1797128 0.83973157
-0.41235262 4.1747217 0.83823866
-0.40635586 4.1697488 0.83672255
-0.4003298 4.1647854 0.8351903
-0.39429757 4.1598153 0.83365566
-0.38824978 4.1548448 0.83211458
-0.38215053 4.1499009 0.8305403
-0.37604105 4.1449513 0.82896346
-0.3699244 4.1399956 0.82738423
-0.36375648 4.1350656 0.82577378
-0.35756999 4.1301374 0.82415283
-0.3513723 4.1252027 0.82252944
-0.34513953 4.1202836 0.82088321
-0.33886725 4.1153793 0.81921506
-0.33258656 4.110467 0.81754357
-0.3262797 4.1055627 0.81585824
-0.31991941 4.1006827 0.8141405
-0.31355104 4.0957961 0.81241989
-0.30715856 4.0909133 0.81068665
-0.30070531 4.0860605 0.80891597
-0.29424158 4.0812011 0.80714053
-0.28775114 4.0763474 0.80535269
-0.28119728 4.0715251 0.80352384
-0.27463201 4.0666971 0.80169165
-0.26802784 4.0618806 0.79983658
-0.26136366 4.0570946 0.79794526
-0.2679894 4.0426836 0.80519599
-0.26316389 4.0365787 0.80456585
-0.2498496 4.0365596 0.79811156
-0.60419774 4.3553643 0.88920552
-0.60236835 4.3470707 0.89063609
-0.60054171 4.3387856 0.8920657
-0.59867078 4.3305531 0.89345837
-0.59628224 4.322793 0.89446938
-0.59096617 4.3176384 0.89333981
-0.57373756 4.3230004 0.88351619
-0.56838989 4.3178153 0.88237894
-0.56301844 4.3126431 0.8812269
-0.55760974 4.3074913 0.88005126
-0.55219686 4.3023338 0.87887394
-0.54677862 4.2971716 0.87769544
-0.54132229 4.2920313 0.87649316
-0.53584403 4.286901 0.87527746
-0.53035837 4.2817645 0.87405986
-0.52486837 4.2766232 0.87284154
-0.51932937 4.2715125 0.87159157
-0.51377839 4.2664003 0.87033463
-0.5082224 4.2612824 0.86907816
-0.50265211 4.256165 0.86781436
-0.49703702 4.2510762 0.86652094
-0.49141407 4.2459817 0.86522537
-0.4857856 4.2408814 0.86392844
-0.48013166 4.2357907 0.86261618
-0.4744429 4.2307177 0.86128348
-0.46874768 4.2256389 0.85994881
-0.46304724 4.2205524 0.85861248
-0.45730463 4.2154899 0.85725069
-0.45154363 4.2104301 0.85587764
-0.44577357 4.2053666 0.85450321
-0.4399966 4.2002969 0.85312539
-0.43416673 4.1952591 0.85171449
-0.42832896 4.1902146 0.85030091
-0.42248479 4.185164 0.84888572
-0.41661298 4.1801233 0.84745473
-0.41070679 4.1750984 0.84600258
-0.40479252 4.1700673 0.8445487
-0.39887109 4.16503 0.84309298
-0.39290103 4.1600184 0.84160548
-0.38691452 4.1550069 0.84011161
-0.38092133 4.1499891 0.83861554
-0.37490314 4.1449776 0.83710498
-0.36884367 4.139986 0.83557028
-0.36277634 4.1349874 0.83403277
-0.35670021 4.1299825 0.83249384
-0.35056898 4.1250067 0.83091837
-0.34442514 4.1200285 0.82933795
-0.33827224 4.1150436 0.82775605
-0.33208239 4.1100736 0.82615179
-0.32585678 4.1051168 0.82452607
-0.31962353 4.1001539 0.82289934
-0.31336644 4.0951943 0.82125908
-0.30705714 4.09026 0.8195864
-0.30073905 4.0853186 0.81791228
-0.29440734 4.0803742 0.81623214
-0.28800869 4.0754647 0.81451082
-0.28160068 4.0705481 0.81278545
-0.27518463 4.0656233 0.81105936
-0.26869106 4.0607405 0.80928391
-0.26218915 4.0558505 0.80750555
-0.26914474 4.0412178 0.814951
-0.26342601 4.0357709 0.81370759
-0.25040197 4.0355549 0.80747378
-0.23305008 4.0383801 0.79829872
-0.60224795 4.365716 0.89387465
-0.60059202 4.3572531 0.89543056
-0.59891886 4.3488197 0.89696956
-0.59717661 4.3404646 0.89845419
-0.59543419 4.3321199 0.89993435
-0.59229857 4.3250294 0.9003967
-0.58703339 4.3198295 0.89930761
-0.56971925 4.3252611 0.88946038
-0.56442237 4.3200321 0.88836414
-0.55912167 4.3147974 0.88726741
-0.55381382 4.3095589 0.88616854
-0.54846162 4.3043494 0.88503963
-0.54309231 4.2991452 0.88390094
-0.53771698 4.2939363 0.88276154
-0.53233403 4.2887235 0.88161951
-0.52689868 4.2835469 0.88044101
-0.52145636 4.2783661 0.87926227
-0.51600766 4.27318 0.87808067
-0.51054007 4.2680001 0.87688786
-0.5050301 4.2628455 0.87566841
-0.49951658 4.2576833 0.87444913
-0.49399605 4.2525167 0.873227
-0.48844221 4.2473674 0.87198484
-0.4828614 4.2422299 0.87072599
-0.47727537 4.2370877 0.86946619
-0.47168291 4.2319374 0.86820501
-0.46604347 4.2268167 0.86691374
-0.46039096 4.2216959 0.86561555
-0.45473102 4.2165689 0.86431569
-0.44906011 4.211441 0.8630113
-0.44333985 4.2063427 0.86167526
-0.43761295 4.2012377 0.86033726
-0.43188006 4.1961255 0.85899758
-0.42612022 4.1910248 0.85764319
-0.42032537 4.1859398 0.85626751
-0.41452414 4.1808486 0.85488898
-0.40871662 4.1757507 0.85351026
-0.40286455 4.1706767 0.85210359
-0.39699483 4.1656051 0.85068715
-0.39111796 4.1605263 0.84926957
-0.38522631 4.1554484 0.84784478
-0.37928557 4.1503963 0.84638923
-0.37333766 4.1453376 0.84493184
-0.36738306 4.1402712 0.8434732
-0.3613908 4.1352229 0.84199166
-0.35537115 4.1301832 0.84049445
-0.34934244 4.1251378 0.8389948
-0.34330201 4.1200871 0.83749068
-0.33720753 4.115068 0.83595169
-0.33110321 4.1100416 0.83441108
-0.32499248 4.1050076 0.83286756
-0.31884006 4.0999937 0.83129972
-0.31265804 4.094986 0.82971525
-0.30646884 4.089973 0.82812977
-0.3002561 4.0849638 0.82653028
-0.29399306 4.0799785 0.82490164
-0.28772259 4.074986 0.82327044
-0.28144166 4.0699863 0.82163727
-0.27509516 4.0650225 0.81996077
-0.26873913 4.060051 0.81828308
-0.26237333 4.0550728 0.81660151
-0.26951221 4.0403228 0.82414043
-0.26321289 4.0353069 0.82250178
-0.25020194 4.0350909 0.81629729
-0.59808481 4.3681059 0.89969611
-0.59663206 4.3594618 0.90139335
-0.59509116 4.3509121 0.90302247
-0.59349579 4.3424258 0.90460867
-0.59185171 4.3339972 0.90615362
-0.58797377 4.3275676 0.90607518
-0.5704366 4.3332396 0.89609164
-0.56525463 4.3279161 0.89508051
-0.56006831 4.3225889 0.89406812
-0.55483127 4.3172965 0.89302242
-0.54957628 4.3120112 0.89196575
-0.54431778 4.3067198 0.89090925
-0.53904706 4.3014297 0.88984591
-0.53372371 4.2961755 0.88874751
-0.52839512 4.2909174 0.88764817
-0.5230605 4.2856541 0.88654661
-0.51770002 4.2804041 0.88542962
-0.51230007 4.275177 0.88428807
-0.50689715 4.2699428 0.88314557
-0.50148869 4.2647042 0.88200212
-0.49603805 4.2594905 0.88083267
-0.49056759 4.2542844 0.87964988
-0.48509097 4.2490721 0.87846708
-0.4796074 4.243856 0.8772819
-0.4740707 4.2386732 0.8760612
-0.46852732 4.2334867 0.87483859
-0.46297726 4.2282953 0.87361455
-0.45740932 4.2231078 0.87238073
-0.4517985 4.2179451 0.87111878
-0.44618049 4.2127757 0.8698566
-0.44055772 4.2076011 0.86859226
-0.4349035 4.2024422 0.86730886
-0.42921802 4.1972952 0.86600804
-0.42352876 4.1921415 0.86470604
-0.41783065 4.1869845 0.86340165
-0.41208825 4.1818514 0.86206937
-0.40632987 4.1767197 0.86072904
-0.40056431 4.1715817 0.85938603
-0.39478636 4.1664429 0.85803777
-0.38895953 4.1613302 0.856659
-0.38312602 4.1562133 0.85527736
-0.37728608 4.1510882 0.85389596
-0.37141326 4.1459765 0.85249531
-0.3655104 4.1408768 0.85107672
-0.35959989 4.1357722 0.84965479
-0.35368222 4.130661 0.84823167
-0.34771428 4.1255765 0.84677827
-0.34173182 4.1204896 0.8453173
-0.33574286 4.115396 0.8438558
-0.32972938 4.1103091 0.84237999
-0.32367393 4.1052423 0.84087938
-0.31761137 4.1001678 0.83937597
-0.31154063 4.0950861 0.83787203
-0.30541867 4.0900316 0.83633566
-0.29928032 4.0849748 0.83479196
-0.29313284 4.0799131 0.83324534
-0.28695747 4.0748596 0.8316825
-0.28073898 4.0698252 0.83009374
-0.27451357 4.0647821 0.82850468
-0.26827621 4.0597339 0.82691157
-0.26197764 4.0547185 0.8252787
-0.26877522 4.0402269 0.83255416
-0.26253933 4.0351758 0.83096224
-0.2492858 4.0351424 0.82461429
-0.59354931 4.3708329 0.90524608
-0.59225851 4.3620443 0.90705442
-0.59089392 4.3533363 0.90880579
-0.58947653 4.3446913 0.91051358
-0.58794999 4.3361588 0.91213936
-0.58322436 4.3304839 0.91144663
-0.56544006 4.3363676 0.90132439
-0.56033957 4.3309703 0.90037614
-0.55521184 4.3255873 0.89941102
-0.55007941 4.3202014 0.89844513
-0.54494029 4.3148131 0.89747566
-0.53973585 4.3094721 0.89646238
-0.53452927 4.3041244 0.89544952
-0.52931601 4.2987738 0.89443529
-0.52407342 4.2934394 0.89340192
-0.51879346 4.2881293 0.8923443
-0.51350677 4.2828145 0.8912847
-0.50821608 4.2774944 0.89022422
-0.50287813 4.2722049 0.88913298
-0.49752092 4.2669234 0.88803071
-0.49215961 4.2616348 0.88692826
-0.48678857 4.2563457 0.88582033
-0.48136196 4.2510924 0.88467664
-0.47592989 4.2458344 0.88353193
-0.47049305 4.240571 0.88238657
-0.46503165 4.2353168 0.88122666
-0.4595314 4.2300868 0.88004076
-0.45402494 4.2248497 0.87885416
-0.44851276 4.2196069 0.87766725
-0.44296438 4.2143869 0.87645656
-0.43738973 4.2091756 0.87523085
-0.4318094 4.203958 0.87400323
-0.4262245 4.1987343 0.87277681
-0.42058623 4.193543 0.87151438
-0.414938 4.1883488 0.87024862
-0.40928423 4.1831479 0.86898142
-0.40361327 4.1779509 0.86770636
-0.39789754 4.1727781 0.86640221
-0.3921763 4.1675982 0.86509687
-0.38644767 4.1624146 0.86379075
-0.3806878 4.1572428 0.86246467
-0.37489697 4.1520848 0.86112076
-0.36909896 4.1469207 0.85977584
-0.36329526 4.1417503 0.85842848
-0.35744339 4.1366043 0.85705239
-0.35157695 4.1314602 0.8556686
-0.34570292 4.1263084 0.85428244
-0.33981243 4.1211581 0.85288888
-0.33387712 4.1160316 0.85146743
-0.32793227 4.1108985 0.85004288
-0.32198003 4.1057596 0.84861666
-0.31599155 4.1006365 0.84716803
-0.30997542 4.0955219 0.84570485
-0.30395219 4.0904012 0.84423929
-0.29791698 4.0852766 0.84276897
-0.2918267 4.0801797 0.8412655
-0.28572878 4.075078 0.83975995
-0.27962258 4.0699677 0.83825099
-0.2734789 4.0648742 0.83672082
-0.267304 4.0597897 0.83517301
-0.26112124 4.054698 0.83362329
-0.26765242 4.0404119 0.84068686
-0.26149967 4.0353093 0.83915502
-0.24785219 4.0355659 0.83256179
-0.23278588 4.0367799 0.82502764
-0.58947575 4.3831186 0.90838975
-0.58855164 4.3739786 0.91046262
-0.5874995 4.3649721 0.91243875
-0.58634973 4.3560715 0.91433722
-0.58506596 4.3473072 0.91613626
-0.58308852 4.3391762 0.91743022
-0.57805264 4.333775 0.91651702
-0.55990279 4.3399725 0.90617269
-0.55489945 4.3344846 0.90529883
-0.54989076 4.3289938 0.90442419
-0.54483354 4.3235373 0.90351653
-0.53975546 4.3180914 0.9025957
-0.53467351 4.3126411 0.90167534
-0.52957225 4.307199 0.90074259
-0.52441835 4.301795 0.89977407
-0.51926059 4.2963843 0.89880657
-0.51409811 4.2909713 0.8978371
-0.50888914 4.2855883 0.89683664
-0.50365579 4.2802176 0.89582115
-0.4984161 4.2748442 0.89480525
-0.49316874 4.2694669 0.89378452
-0.48786181 4.2641335 0.8927238
-0.48254862 4.2587934 0.89166182
-0.47723094 4.2534504 0.89059991
-0.47188538 4.2481198 0.88952005
-0.46650025 4.2428126 0.88841593
-0.46111035 4.2375007 0.88731009
-0.45571545 4.2321835 0.88620335
-0.45027548 4.2268929 0.88506794
-0.44481596 4.2216101 0.88392043
-0.43934885 4.2163224 0.88277221
-0.43387645 4.21103 0.88162202
-0.4283464 4.2057729 0.8804335
-0.42281085 4.2005115 0.87924546
-0.41727003 4.1952443 0.8780545
-0.41170734 4.1899848 0.87685239
-0.4061029 4.1847472 0.87562358
-0.40049297 4.1795039 0.8743943
-0.39487684 4.1742544 0.87316376
-0.38922399 4.1690245 0.87191135
-0.38354591 4.1638036 0.87064296
-0.37786016 4.1585779 0.86937267
-0.37216893 4.1533461 0.86810189
-0.36642742 4.1481428 0.8667984
-0.36067283 4.1429372 0.8654902
-0.35491246 4.1377263 0.86418009
-0.34913662 4.1325159 0.86286259
-0.34331334 4.1273313 0.86151528
-0.33748338 4.1221409 0.86016703
-0.33164698 4.1169424 0.85881734
-0.32577696 4.1117592 0.85744762
-0.31987765 4.1065869 0.85606092
-0.31397092 4.1014085 0.85467261
-0.30805704 4.0962234 0.85328215
-0.3020905 4.0910668 0.85185975
-0.29611105 4.085906 0.8504321
-0.29012543 4.080739 0.84900206
-0.28411621 4.0755787 0.84755987
-0.27806547 4.070435 0.84609407
-0.27200714 4.0652866 0.84462494
-0.26594165 4.0601311 0.84315461
-0.25982586 4.0549994 0.841654
-0.26614156 4.0408773 0.84854287
-0.26007441 4.0357213 0.84707183
-0.24585709 4.0363908 0.84011883
-0.58381003 4.3868709 0.91313553
-0.58316636 4.3774743 0.91540486
-0.58234662 4.3682551 0.91754115
-0.58138627 4.3591828 0.91956949
-0.58031541 4.3502259 0.92151511
-0.57740325 4.3429275 0.92213309
-0.55871534 4.3496418 0.91142976
-0.55383807 4.3440433 0.91064984
-0.54895067 4.3384471 0.90986419
-0.54400074 4.3328977 0.90903676
-0.53904843 4.3273454 0.90820938
-0.53409284 4.3217869 0.90738034
-0.52908546 4.3162675 0.90651697
-0.5240559 4.3107581 0.90564144
-0.51902455 4.3052435 0.90476489
-0.51396686 4.2997432 0.90387315
-0.50886583 4.2942734 0.90295041
-0.50375718 4.2888002 0.90202671
-0.4986454 4.2833242 0.9011023
-0.49347696 4.2778873 0.90013951
-0.48829323 4.2724538 0.89916939
-0.48310518 4.2670164 0.89819777
-0.47789404 4.26159 0.89721304
-0.47263286 4.2561979 0.89619398
-0.4673678 4.2507977 0.89517564
-0.46209732 4.2453952 0.89415568
-0.45678106 4.2400212 0.8931061
-0.4514412 4.2346578 0.8920427
-0.44609514 4.229291 0.89097697
-0.4407424 4.2239194 0.88990879
-0.43532982 4.2185879 0.88880152
-0.42991155 4.2132511 0.88769358
-0.42448825 4.2079077 0.88658464
-0.41903803 4.2025785 0.88545954
-0.41355017 4.1972709 0.88431007
-0.40805465 4.1919565 0.8831597
-0.40255529 4.1866374 0.8820076
-0.39701235 4.1813421 0.88082838
-0.39144674 4.1760559 0.87963629
-0.3858766 4.1707621 0.87844461
-0.38029954 4.1654649 0.87725061
-0.37466624 4.1602015 0.87601984
-0.36902604 4.154932 0.87478888
-0.36337888 4.1496577 0.8735553
-0.35771197 4.1443882 0.87231022
-0.35200191 4.1391416 0.8710385
-0.34628612 4.1338892 0.86976653
-0.34056318 4.1286306 0.86849189
-0.33480448 4.1233892 0.86719608
-0.32901931 4.1181574 0.86588454
-0.32322723 4.1129189 0.86457199
-0.31742799 4.107676 0.86325783
-0.31157708 4.1024599 0.86191171
-0.30571562 4.0972404 0.86056125
-0.29984581 4.0920177 0.85920727
-0.29395744 4.0867958 0.85784519
-0.28802472 4.0815964 0.85645473
-0.28208435 4.0763893 0.8550635
-0.27613711 4.071177 0.85367018
-0.27015075 4.0659819 0.85225374
-0.26413816 4.060792 0.85082322
-0.25811839 4.0555983 0.84939057
-0.26430255 4.0415812 0.85616356
-0.25737265 4.0370522 0.8541159
-0.24339342 4.0375547 0.84734887
-0.57763052 4.3910875 0.9175207
-0.57730454 4.3813977 0.92001027
-0.57676858 4.3719206 0.92234343
-0.57606298 4.3626161 0.92454886
-0.57522392 4.3534503 0.92665225
-0.57121801 4.3471227 0.92648655
-0.55195457 4.3543353 0.91541547
-0.54719669 4.3486223 0.91472727
-0.54237741 4.3429585 0.91399479
-0.53755379 4.3372922 0.91326129
-0.53272611 4.3316202 0.91252851
-0.52783322 4.3260012 0.91174978
-0.52293283 4.3203816 0.91096717
-0.51802909 4.3147583 0.91018534
-0.51307684 4.3091693 0.90936983
-0.50810045 4.3035927 0.90854007
-0.50312024 4.2980137 0.90770811
-0.49811456 4.2924485 0.90686119
-0.49306306 4.2869153 0.90598518
-0.48800659 4.2813787 0.90510654
-0.48294705 4.2758374 0.90422738
-0.47782311 4.2703419 0.90330607
-0.47269177 4.2648449 0.90238094
-0.46755451 4.2593451 0.90145439
-0.46238434 4.2538638 0.90050662
-0.45717534 4.2484074 0.89953429
-0.45196107 4.2429471 0.89855981
-0.44674274 4.2374806 0.89758581
-0.44146031 4.2320595 0.89656961
-0.43616787 4.2266369 0.89554816
-0.43087137 4.2212095 0.89452654
-0.42555031 4.2157931 0.89348984
-0.42018256 4.2104053 0.89242333
-0.41480932 4.2050128 0.8913554
-0.40943202 4.1996155 0.89028722
-0.40400967 4.1942444 0.8891905
-0.39856273 4.1888828 0.88808012
-0.3931101 4.183517 0.88696784
-0.38765246 4.1781445 0.88585466
-0.38213378 4.1728129 0.88470185
-0.37661013 4.1674743 0.88354856
-0.37108049 4.1621304 0.8823939
-0.36552775 4.1567945 0.88122606
-0.35993209 4.1514826 0.88003087
-0.35433069 4.1461644 0.87883586
-0.34872502 4.1408401 0.87763971
-0.34307715 4.1355371 0.87641776
-0.3374064 4.1302428 0.87518322
-0.33172992 4.1249418 0.87394649
-0.32604581 4.1196351 0.87270856
-0.32030717 4.1143603 0.87143731
-0.31455868 4.1090813 0.87016034
-0.30880475 4.1037974 0.86888331
-0.30303052 4.0985174 0.86759585
-0.29721388 4.0932574 0.86628258
-0.29138914 4.0879931 0.86496675
-0.28555769 4.0827227 0.86364967
-0.27968955 4.0774674 0.86231095
-0.273794 4.0722222 0.86095625
-0.26789227 4.0669708 0.85959959
-0.26198336 4.0617132 0.85824347
-0.25851038 4.054678 0.85852104
-0.26214015 4.0425196 0.86355424
-0.25420904 4.0387149 0.86084443
-0.57093084 4.3957734 0.9215436
-0.57099682 4.3857245 0.92430556
-0.57078856 4.375947 0.92686611
-0.57035393 4.3663945 0.92925721
-0.56928343 4.3574319 0.93118972
-0.56455737 4.3517408 0.93051255
-0.54453057 4.3596168 0.91894329
-0.5398621 4.3538132 0.91832399
-0.53517717 4.3480206 0.9176935
-0.53048795 4.3422256 0.91706079
-0.52573854 4.3364782 0.91638762
-0.52097231 4.3307385 0.9157033
-0.51620179 4.324996 0.91501939
-0.51137918 4.3192945 0.91429901
-0.50653362 4.3136048 0.91356432
-0.50168568 4.3079119 0.91282964
-0.4967953 4.302248 0.91206729
-0.49187326 4.2966061 0.91128403
-0.48694664 4.2909598 0.91049975
-0.48199838 4.2853255 0.9097017
-0.4769991 4.2797265 0.9088695
-0.4719972 4.2741232 0.90803927
-0.4669905 4.268517 0.90720588
-0.46191734 4.2629585 0.90632892
-0.45683751 4.2573981 0.90544927
-0.45175451 4.2518325 0.90456873
-0.44663203 4.2462912 0.9036634
-0.44147471 4.2407732 0.9027366
-0.43631217 4.2352495 0.90180808
-0.43114221 4.2297235 0.90087581
-0.42590645 4.2242441 0.89990085
-0.4206669 4.2187586 0.89892495
-0.41542166 4.2132702 0.89794761
-0.41013801 4.2078037 0.89694595
-0.40481791 4.2023592 0.89592236
-0.39949518 4.1969056 0.89489877
-0.39416647 4.1914501 0.89387304
-0.38877267 4.1860361 0.89280653
-0.38337225 4.1806183 0.89173621
-0.37796703 4.1751962 0.89066565
-0.3725363 4.1697845 0.88958055
-0.36706269 4.1643977 0.8884688
-0.36158165 4.1590061 0.8873539
-0.35609636 4.1536088 0.88623804
-0.35056648 4.1482368 0.88509572
-0.34501252 4.1428738 0.88393933
-0.33945498 4.1375027 0.88278228
-0.3338891 4.1321287 0.88162327
-0.32826433 4.1267905 0.8804273
-0.32263383 4.1214466 0.87922877
-0.31699693 4.1160965 0.87802994
-0.31133664 4.1107545 0.87681776
-0.30563512 4.105432 0.87557989
-0.29992622 4.1001067 0.87433982
-0.29421133 4.0947742 0.87309951
-0.28845903 4.0894594 0.87183636
-0.28267908 4.0841541 0.87055814
-0.27689317 4.0788431 0.86927831
-0.27110082 4.0735254 0.86799604
-0.26525295 4.0682383 0.86668062
-0.2593967 4.0629463 0.86536241
-0.25967458 4.0531998 0.86814231
-0.25960237 4.0437293 0.87068319
-0.25063521 4.0406733 0.86729306
-0.23705184 4.040895 0.86083829
-0.56267184 4.4118934 0.9217515
-0.56366009 4.4009743 0.92517155
-0.56416798 4.3905182 0.92824167
-0.56431931 4.3804107 0.93105036
-0.56420344 4.3705673 0.93366051
-0.56192911 4.3626752 0.9347316
-0.55726707 4.3569164 0.93410468
-0.53631085 4.3655996 0.92192477
-0.53177494 4.3596663 0.92140561
-0.52723843 4.3537297 0.92088544
-0.52267981 4.3478084 0.92035121
-0.51805806 4.3419371 0.91977316
-0.51343346 4.3360643 0.91919535
-0.50877762 4.3302116 0.91859674
-0.50407165 4.3243985 0.91796315
-0.49936268 4.3185821 0.9173305
-0.49462053 4.3127885 0.91667545
-0.48983338 4.3070278 0.91598982
-0.48504236 4.3012643 0.91530424
-0.48022589 4.295516 0.91460246
-0.47535911 4.2898054 0.91386682
-0.47048873 4.2840896 0.91313076
-0.465606 4.2783794 0.91238678
-0.46066248 4.2727127 0.91160297
-0.4557156 4.2670417 0.91081846
-0.45076564 4.2613673 0.91003442
-0.44575036 4.2557392 0.90920562
-0.4407253 4.2501135 0.90837318
-0.43569598 4.2444839 0.90753889
-0.43062374 4.2388797 0.90667808
-0.42552024 4.2332969 0.90579659
-0.42041057 4.2277102 0.90491313
-0.41528857 4.2221255 0.90402305
-0.41010597 4.2165828 0.90309405
-0.40491861 4.2110353 0.90216273
-0.39972645 4.2054834 0.90123212
-0.39448544 4.1999626 0.90026909
-0.38921919 4.1944551 0.89929098
-0.38394889 4.188942 0.89831245
-0.37866306 4.1834316 0.89732534
-0.37331575 4.1779613 0.89629865
-0.36796439 4.1724854 0.89527196
-0.36260825 4.1670055 0.89424431
-0.35721183 4.1615477 0.89319092
-0.35178253 4.1561069 0.89211917
-0.34634918 4.1506586 0.89104569
-0.34091008 4.1452069 0.88997179
-0.33540809 4.1397943 0.88885719
-0.32989964 4.134377 0.88774133
-0.3243838 4.1289558 0.88662261
-0.3188453 4.1235418 0.88549125
-0.31326297 4.1181531 0.88433319
-0.30767441 4.1127572 0.88317299
-0.30208087 4.1073565 0.88201135
-0.29644322 4.1019783 0.88082421
-0.29078171 4.0966091 0.87962401
-0.28511474 4.0912328 0.87842208
-0.2794418 4.0858517 0.87721872
-0.27370951 4.080503 0.87597865
-0.26797056 4.0751505 0.87473714
-0.26222444 4.0697913 0.87349331
-0.25645542 4.0644383 0.87223798
-0.26083469 4.0517278 0.87773359
-0.25673759 4.0451756 0.87758642
-0.24658263 4.0429764 0.87341946
-0.23317344 4.0430727 0.86710465
-0.55571425 4.4067841 0.92833728
-0.55676419 4.3958278 0.93178356
-0.55738908 4.3852873 0.93491995
-0.55764818 4.3750997 0.93778896
-0.55387932 4.3685336 0.93779987
-0.53136861 4.3786383 0.92455602
-0.52710527 4.3724527 0.92423344
-0.52276498 4.3663306 0.92385679
-0.51839864 4.3602295 0.92346364
-0.51401067 4.3541436 0.92305505
-0.50954998 4.3481174 0.92259663
-0.50508761 4.3420887 0.92213821
-0.50057024 4.3361044 0.92164189
-0.49601659 4.3301463 0.92112243
-0.49145964 4.3241868 0.92060113
-0.48682877 4.3182855 0.9200297
-0.48218602 4.3123913 0.91945022
-0.4775373 4.3064947 0.9188695
-0.4728128 4.3006577 0.91823709
-0.46808684 4.2948184 0.91760391
-0.46335137 4.2889795 0.9169665
-0.45854726 4.2831941 0.91628259
-0.4537386 4.2774062 0.91559821
-0.44892853 4.2716122 0.91491377
-0.4440448 4.2658744 0.9141798
-0.43915823 4.2601333 0.91344631
-0.43426594 4.2543898 0.91270971
-0.42931402 4.2486887 0.91193432
-0.42434332 4.2429967 0.91114789
-0.41936901 4.2373004 0.91036028
-0.41435468 4.2316298 0.90954763
-0.4093039 4.2259827 0.90871209
-0.40424904 4.2203307 0.90787494
-0.39917842 4.2146845 0.90702915
-0.39404824 4.2090788 0.90614402
-0.3889133 4.2034688 0.90525895
-0.38377526 4.197855 0.90437311
-0.37858358 4.1922746 0.90345228
-0.37337092 4.1867042 0.90252018
-0.36815375 4.1811271 0.90158695
-0.36291227 4.1755638 0.90063864
-0.35761857 4.170032 0.89965892
-0.35232222 4.164494 0.89867848
-0.34701875 4.1589527 0.89769512
-0.34166047 4.1534457 0.89667726
-0.33628193 4.1479459 0.89564842
-0.33089787 4.1424413 0.89461792
-0.32549572 4.1369414 0.89357829
-0.32003972 4.1314745 0.89250416
-0.31457749 4.1260028 0.8914274
-0.30911097 4.1205244 0.89035136
-0.30360153 4.1150703 0.88924861
-0.29806349 4.1096287 0.88813061
-0.29251951 4.1041818 0.88700902
-0.28697005 4.0987287 0.88588816
-0.28135836 4.0933123 0.88472676
-0.27574047 4.0878911 0.88356537
-0.27011663 4.0824656 0.88240159
-0.26446798 4.0770478 0.88122445
-0.25877574 4.071651 0.8800211
-0.25307894 4.0662479 0.87881678
-0.25928554 4.052218 0.88550156
-0.25354037 4.0468626 0.88426197
-0.24205908 4.0456185 0.87923312
-0.22876048 4.0456328 0.87301654
-0.54691744 4.4133601 0.93092078
-0.54872185 4.4017119 0.93489116
-0.54987407 4.390686 0.93839085
-0.54940391 4.3811436 0.94073594
-0.54505962 4.3750792 0.94034451
-0.52062786 4.3868675 0.92580515
-0.51659423 4.3804574 0.92565089
-0.51256156 4.3740449 0.92549688
-0.50840855 4.3677382 0.92525846
-0.50425214 4.3614302 0.92501926
-0.50001335 4.3551931 0.92472273
-0.49574521 4.3489795 0.92440611
-0.4914349 4.3427978 0.92406207
-0.48706046 4.3366704 0.92367208
-0.48268461 4.3305392 0.92328393
-0.47821724 4.3244848 0.92283124
-0.47374058 4.3184319 0.92237496
-0.46923175 4.3124046 0.92189652
-0.46466449 4.3064227 0.92137873
-0.4600949 4.300437 0.92086071
-0.45547166 4.2944927 0.92030579
-0.4508172 4.2885704 0.91973126
-0.4461582 4.2826457 0.91915482
-0.44143966 4.2767658 0.91853935
-0.4366996 4.2708983 0.91791022
-0.43195412 4.2650313 0.91727781
-0.42714974 4.2592058 0.91660815
-0.42232034 4.2533951 0.91592187
-0.41748616 4.2475829 0.91523391
-0.41260293 4.2418041 0.91451353
-0.4076868 4.2360468 0.91377336
-0.40276632 4.2302861 0.91303128
-0.39781204 4.2245455 0.91226792
-0.39281484 4.2188339 0.91147679
-0.38781118 4.21312 0.91068345
-0.38279733 4.207408 0.90988606
-0.37772006 4.2017388 0.90904647
-0.37264013 4.1960659 0.90820688
-0.36755615 4.1903868 0.90736657
-0.36241859 4.1847448 0.90649146
-0.35725906 4.1791105 0.90560472
-0.35209596 4.1734729 0.90471745
-0.34690666 4.1678486 0.903813
-0.34166729 4.1622529 0.90287811
-0.33642435 4.1566539 0.90194243
-0.33117637 4.1510501 0.90100658
-0.32586336 4.1454883 0.90002894
-0.32053986 4.1399274 0.89904493
-0.31521061 4.1343613 0.89806134
-0.30984968 4.1288104 0.89705753
-0.30444324 4.1232872 0.89602607
-0.29903248 4.1177564 0.89499432
-0.29361644 4.1122217 0.89396071
-0.28814086 4.1067224 0.89288992
-0.28265145 4.1012244 0.89181215
-0.27715513 4.0957227 0.89073253
-0.27163902 4.0902267 0.88964242
-0.26607141 4.0847592 0.88852012
-0.26049879 4.0792851 0.88739777
-0.25491974 4.0738087 0.88627356
-0.24929948 4.0683513 0.88512456
-0.25562686 4.0542364 0.89186251
-0.24999206 4.0488038 0.89070064
-0.23705363 4.0486054 0.88473123
-0.22379531 4.0485878 0.87856489
-0.5417285 4.3966484 0.94143695
-0.51100951 4.4041171 0.92519385
-0.50766343 4.397069 0.92552894
-0.50412881 4.3901877 0.92573261
-0.50050718 4.3833871 0.92587435
-0.49679381 4.3766685 0.92595178
-0.49296892 4.3700476 0.92595005
-0.48909733 4.3634686 0.92591661
-0.48511329 4.3569865 0.92580521
-0.481098 4.3505301 0.92567211
-0.47698331 4.3441582 0.92547041
-0.47283766 4.3378115 0.92524701
-0.46861765 4.3315272 0.92497259
-0.46434852 4.3252811 0.92466599
-0.46004274 4.3190651 0.92433363
-0.45566258 4.3129072 0.92395222
-0.45128241 4.3067479 0.92357028
-0.44681528 4.3006573 0.92312878
-0.44233263 4.2945771 0.92267865
-0.43782616 4.2885122 0.92221355
-0.43325487 4.2824979 0.9217034
-0.42867449 4.2764859 0.9211899
-0.42405364 4.2705026 0.92064971
-0.41938293 4.2645569 0.92007518
-0.41470063 4.2586145 0.91949499
-0.40997535 4.2527027 0.91888779
-0.40520385 4.2468219 0.91824919
-0.40042186 4.2409458 0.91760528
-0.39560652 4.2350903 0.91694021
-0.39074135 4.2292705 0.91624242
-0.38587022 4.2234492 0.9155423
-0.38097858 4.2176366 0.91483122
-0.37603164 4.2118635 0.91408288
-0.37108117 4.2060871 0.91333389
-0.3661271 4.2003064 0.91258466
-0.36110699 4.194571 0.91179252
-0.35608023 4.1888332 0.91099751
-0.35105297 4.1830902 0.91020441
-0.34597591 4.1773806 0.9093796
-0.3408719 4.1716824 0.90853786
-0.33576578 4.1659799 0.90769804
-0.33063388 4.1602902 0.90684175
-0.32544956 4.1546326 0.90595233
-0.32026213 4.1489706 0.9050622
-0.31507137 4.1433034 0.90417403
-0.30980957 4.1376815 0.90323907
-0.30454013 4.1320596 0.90230125
-0.29926619 4.1264315 0.90136325
-0.29395339 4.1208253 0.90040088
-0.28860173 4.1152391 0.89941442
-0.28324556 4.1096501 0.89842755
-0.27788389 4.1040549 0.8974387
-0.27244925 4.0985055 0.89640486
-0.26701012 4.0929499 0.89537024
-0.2615667 4.0873919 0.89433473
-0.2560868 4.0818496 0.8932777
-0.25056756 4.0763268 0.89219761
-0.24676527 4.0695491 0.8922497
-0.25159857 4.0565228 0.89797771
-0.24459171 4.0520782 0.89591885
-0.23142065 4.0520439 0.88982147
-0.21817972 4.0520091 0.88369066
-0.48755604 4.4035473 0.92299396
-0.48227766 4.388144 0.92466396
-0.47924611 4.3807964 0.92522353
-0.47604132 4.3736048 0.92566127
-0.47259864 4.3666248 0.92593247
-0.46906736 4.3597236 0.92614186
-0.46541715 4.3529277 0.92626888
-0.4616273 4.346251 0.92629927
-0.45778954 4.3396182 0.92629588
-0.45380402 4.3331103 0.92619044
-0.44979966 4.3266177 0.92607212
-0.44566566 4.3202338 0.92586565
-0.44151857 4.3138595 0.92565054
-0.43727735 4.3075624 0.92537159
-0.43300608 4.3012886 0.92507094
-0.4286862 4.2950511 0.92473936
-0.4243077 4.2888618 0.92436886
-0.41991085 4.2826824 0.92398548
-0.41543511 4.276566 0.923549
-0.41093007 4.2704692 0.92309415
-0.40640283 4.2643881 0.92262495
-0.40179032 4.2583718 0.92209882
-0.39716226 4.2523627 0.9215641
-0.3925097 4.2463689 0.92101365
-0.38778487 4.2404308 0.92041528
-0.38304794 4.2344956 0.91981053
-0.37829617 4.2285686 0.91919595
-0.37347391 4.2226906 0.91853631
-0.36864898 4.2168097 0.91787624
-0.36382124 4.2109265 0.91721541
-0.35892791 4.2050877 0.91651291
-0.35403198 4.1992474 0.91580939
-0.34913319 4.1934009 0.9151057
-0.34418482 4.1875882 0.91437078
-0.33921668 4.1817842 0.91362411
-0.33424586 4.1759758 0.91287702
-0.32924125 4.1701875 0.91210896
-0.32419518 4.1644244 0.91131586
-0.31915 4.1586542 0.91052318
-0.31408128 4.1528955 0.90971887
-0.30895391 4.1471734 0.9088769
-0.30382368 4.1414475 0.90803444
-0.2986896 4.1357169 0.90719151
-0.29348621 4.1300306 0.90630424
-0.28827396 4.1243448 0.90541244
-0.28305387 4.1186557 0.9045192
-0.27779442 4.1129894 0.90360093
-0.27249971 4.1073422 0.90266246
-0.26719835 4.1016908 0.90172058
-0.26188481 4.0960412 0.90077299
-0.25650716 4.0904298 0.89978486
-0.25112328 4.0848155 0.89879632
-0.24573587 4.0791955 0.89780605
-0.24794638 4.0680499 0.90180087
-0.24717633 4.059094 0.90383428
-0.23837316 4.0559421 0.90060842
-0.22515634 4.0559354 0.89450455
-0.45643842 4.4095564 0.91558009
-0.45908028 4.3971763 0.92008483
-0.45843729 4.387702 0.92230648
-0.45664471 4.3792467 0.92372864
-0.45431355 4.3712711 0.92477512
-0.45156178 4.3636656 0.9255299
-0.44850922 4.3563275 0.92607474
-0.44525224 4.3491697 0.92647767
-0.44183555 4.3421502 0.92677128
-0.43821108 4.3353105 0.92692089
-0.43449271 4.3285527 0.92700469
-0.43065277 4.321897 0.92700648
-0.42673993 4.3153043 0.92695826
-0.42273486 4.3087878 0.92684615
-0.41867641 4.3023133 0.92669928
-0.41452837 4.2959146 0.92649108
-0.41035098 4.2895374 0.92626315
-0.40606612 4.283247 0.92596227
-0.40174839 4.2769809 0.9256404
-0.39736867 4.2707634 0.92527682
-0.39291865 4.2645984 0.92486745
-0.38844219 4.2584543 0.9244405
-0.38389421 4.2523623 0.92396587
-0.37929997 4.2463045 0.92346114
-0.37468433 4.2402592 0.92294407
-0.37000838 4.2342577 0.92238694
-0.36530501 4.2282729 0.92181289
-0.36059353 4.2222915 0.92123455
-0.35583776 4.2163377 0.92062759
-0.35106096 4.2103972 0.9200083
-0.34628442 4.2044506 0.91939038
-0.3414745 4.1985254 0.91875172
-0.33663529 4.192616 0.91809446
-0.33179703 4.1867018 0.91744035
-0.32693538 4.180799 0.91677189
-0.32202944 4.1749249 0.91607481
-0.31712273 4.1690474 0.91537899
-0.31219915 4.1631751 0.91467357
-0.30721453 4.1573439 0.9139291
-0.30222586 4.1515083 0.91318458
-0.29723313 4.1456699 0.91243821
-0.29216626 4.1398821 0.9116444
-0.28709394 4.1340914 0.91084909
-0.28201804 4.1282973 0.91005266
-0.27688038 4.1225405 0.90921807
-0.27172366 4.1167932 0.90837276
-0.26656386 4.1110387 0.90752739
-0.26136401 4.1053076 0.90665728
-0.25612384 4.0996003 0.90576285
-0.25088108 4.0938864 0.90486747
-0.2456219 4.0881763 0.90396541
-0.24029954 4.0825043 0.90302306
-0.24766961 4.0676098 0.9103719
-0.24228981 4.0620008 0.90938669
-0.23141792 4.060338 0.90482551
-0.43143472 4.3898416 0.91787958
-0.43291295 4.3785329 0.92155063
-0.43204501 4.3692732 0.92360324
-0.4301888 4.3608775 0.92497486
-0.42776993 4.3529739 0.92595845
-0.42497072 4.3454032 0.92667937
-0.42183998 4.3381195 0.92717171
-0.41853604 4.3309875 0.92754513
-0.41506743 4.3239951 0.92780536
-0.41142604 4.317152 0.927948
-0.40771836 4.3103647 0.92804545
-0.4038558 4.3037071 0.92803699
-0.39994508 4.2970896 0.9279952
-0.39589947 4.2905827 0.92786354
-0.39179525 4.2841234 0.92769182
-0.38760069 4.2777376 0.92745912
-0.3833237 4.2714157 0.92717206
-0.3790026 4.2651272 0.92685568
-0.37457448 4.2589235 0.92646825
-0.37010419 4.2527504 0.92605293
-0.36559746 4.2466021 0.92561454
-0.36100799 4.2405176 0.92512107
-0.35640734 4.2344375 0.92462111
-0.35179263 4.228364 0.92411381
-0.34711927 4.2223325 0.92356837
-0.3424488 4.2162943 0.92302531
-0.33778232 4.2102475 0.92248696
-0.33305681 4.2042427 0.92190957
-0.32834053 4.1982269 0.92134124
-0.32363334 4.1921983 0.92077911
-0.31886154 4.1862135 0.92017478
-0.31409454 4.1802225 0.91957569
-0.30932939 4.1742244 0.9189797
-0.30449826 4.1682711 0.91834009
-0.29965639 4.1623206 0.91769594
-0.29481357 4.1563649 0.91705155
-0.28990638 4.1504517 0.91636789
-0.2849811 4.1445484 0.91567296
-0.28005368 4.1386404 0.91497827
-0.27506593 4.1327705 0.91424501
-0.27005485 4.1269131 0.91349858
-0.265039 4.1210513 0.91275054
-0.25997639 4.1152201 0.91197431
-0.25487852 4.1094069 0.91117525
-0.24977736 4.10359 0.91037613
-0.24464446 4.0977883 0.90955967
-0.23946342 4.0920162 0.90871269
-0.23427784 4.0862398 0.90786421
-0.24219823 4.0709438 0.91554391
-0.23688301 4.0652828 0.91460633
-0.22358564 4.0653629 0.90848917
-0.40961131 4.3772969 0.91976756
-0.4102135 4.3667688 0.92281908
-0.40919232 4.3576469 0.92475748
-0.40727654 4.349299 0.92608434
-0.40482906 4.3414135 0.92704624
-0.40202245 4.3338366 0.92776263
-0.39898252 4.3264632 0.92831814
-0.39571145 4.3192863 0.92871732
-0.39225546 4.3122683 0.92898989
-0.38866383 4.3053637 0.92916954
-0.38491446 4.2985902 0.9292438
-0.3810533 4.2919116 0.9292413
-0.37707299 4.2853303 0.92916018
-0.37297806 4.278842 0.92900062
-0.36881042 4.2724104 0.92879319
-0.36450931 4.2660851 0.9284966
-0.36015224 4.2598033 0.92816305
-0.35572794 4.2535734 0.9277854
-0.35122758 4.2473998 0.92735863
-0.34670797 4.2412391 0.92691898
-0.34216449 4.2350926 0.92646533
-0.33757836 4.2289758 0.92598397
-0.33299533 4.2228541 0.92550552
-0.32841325 4.2167253 0.9250294
-0.32379544 4.2106223 0.92452925
-0.31919044 4.2045026 0.92404008
-0.31459546 4.1983733 0.923558
-0.30995262 4.1922765 0.92304498
-0.30532023 4.1861653 0.92254168
-0.30068621 4.1800528 0.92203677
-0.29598993 4.1739841 0.92149293
-0.29129726 4.1679063 0.92095274
-0.28658861 4.1618371 0.92040253
-0.28181633 4.1558113 0.91981131
-0.27704307 4.1497812 0.91922319
-0.27224457 4.143765 0.91861832
-0.26738527 4.1377897 0.91797394
-0.26252124 4.1318121 0.91732907
-0.25763166 4.1258483 0.91666847
-0.25268278 4.1199226 0.91597098
-0.2477296 4.1139936 0.91527319
-0.24275304 4.1080775 0.91456109
-0.23771714 4.1021976 0.91381133
-0.23267576 4.0963149 0.91305995
-0.23385975 4.0858927 0.91634876
-0.23620157 4.0746579 0.92038077
-0.22854666 4.0706825 0.91793317
-0.21465704 4.071178 0.9114601
-0.20053264 4.0717854 0.90484977
-0.38280705 4.3889513 0.91306353
-0.38920099 4.3734608 0.92004168
-0.3899903 4.3627772 0.92320716
-0.389155 4.3534913 0.92526692
-0.3874892 4.344923 0.92675984
-0.38525453 4.336844 0.92786455
-0.38263619 4.3290939 0.92870963
-0.37972137 4.3216004 0.92935193
-0.37652415 4.3143449 0.92980349
-0.37311819 4.3072648 0.93011373
-0.36952347 4.3003445 0.93029648
-0.3657724 4.2935534 0.93037432
-0.36186048 4.2868938 0.93034393
-0.35783631 4.2803259 0.93023801
-0.35365435 4.2738848 0.93002844
-0.34937614 4.2675195 0.92975324
-0.34502259 4.2612123 0.92943043
-0.34057853 4.2549767 0.92904609
-0.33610916 4.2487555 0.92864746
-0.3316212 4.2425475 0.92823648
-0.32708892 4.2363687 0.92779756
-0.32256952 4.2301793 0.92736793
-0.3180711 4.2239666 0.92695355
-0.31353927 4.2177773 0.92651707
-0.3090339 4.2115641 0.9260996
-0.3045674 4.205317 0.92570859
-0.30004537 4.19911 0.92528278
-0.29554975 4.1928773 0.92487389
-0.29106849 4.1866317 0.92447692
-0.28651807 4.1804347 0.92403394
-0.28198075 4.1742244 0.92360151
-0.27743369 4.1680179 0.92316353
-0.27281964 4.1618576 0.9226824
-0.26820871 4.1556916 0.92220485
-0.26356271 4.1495466 0.92170423
-0.2588619 4.1434412 0.92117041
-0.25416204 4.1373286 0.92063808
-0.24940215 4.1312561 0.92006809
-0.24460983 4.1252031 0.91947824
-0.23981442 4.1191468 0.91888654
-0.23495081 4.1131372 0.91825289
-0.23006552 4.1071367 0.91760707
-0.2251769 4.1011338 0.91695958
-0.23472601 4.0846109 0.92564368
-0.2296191 4.0787954 0.92484814
-0.21887258 4.0770488 0.92041886
-0.20441288 4.0779362 0.9136073
-0.35700363 4.3996291 0.90716583
-0.36891338 4.3794522 0.91784275
-0.37122622 4.3674636 0.92202908
-0.37137157 4.3573318 0.9247455
-0.37035376 4.3482003 0.92667323
-0.36860049 4.3396983 0.92810464
-0.36630052 4.3316641 0.92916477
-0.36360374 4.323966 0.92995673
-0.36057836 4.3165483 0.93052721
-0.35726649 4.30937 0.93090492
-0.35373515 4.3023753 0.93113387
-0.34998173 4.2955651 0.93121552
-0.34606072 4.2888904 0.93118519
-0.34196219 4.2823596 0.93103707
-0.337708 4.2759519 0.93078524
-0.33337188 4.2696099 0.93047935
-0.32894611 4.2633362 0.93011576
-0.3244684 4.2571015 0.92971832
-0.3199819 4.2508698 0.92931587
-0.31547794 4.2446494 0.92890197
-0.31097019 4.2384272 0.9284879
-0.30650511 4.2321677 0.92810214
-0.30206266 4.2258878 0.92773283
-0.29762807 4.2195983 0.9273687
-0.29324973 4.2132616 0.92704326
-0.2889024 4.2068987 0.92673784
-0.28452474 4.2005568 0.9264133
-0.28018501 4.1941819 0.92611456
-0.27584288 4.1878057 0.92581511
-0.27146336 4.181457 0.92549199
-0.26710573 4.1750884 0.92518443
-0.26269662 4.1687565 0.9248423
-0.25826514 4.1624379 0.92448819
-0.25383389 4.156116 0.92413342
-0.24930991 4.1498613 0.92372096
-0.24479 4.143599 0.92331111
-0.24022266 4.1373692 0.92287076
-0.23560406 4.1311746 0.92239964
-0.23098405 4.1249752 0.92192811
-0.22628035 4.1188345 0.92140263
-0.22156189 4.1127005 0.92087001
-0.21850362 4.1053476 0.92140764
-0.22742878 4.0892758 0.92965794
-0.22246607 4.0833473 0.92896086
-0.20771131 4.084486 0.92197561
-0.19228636 4.08605 0.91457677
-0.35163423 4.3828287 0.9177466
-0.35418159 4.3706346 0.92207569
-0.35461888 4.3602471 0.92498088
-0.35385242 4.3508897 0.92707449
-0.35228768 4.3422132 0.9286294
-0.35009399 4.3340702 0.92976218
-0.34741962 4.3263359 0.93057036
-0.34437159 4.3189154 0.9311294
-0.34100777 4.3117576 0.93147635
-0.3373768 4.3048215 0.9316448
-0.33348319 4.2981009 0.93163943
-0.32939562 4.2915368 0.93150538
-0.32508615 4.285151 0.93122399
-0.32067776 4.2788424 0.93087876
-0.31617433 4.2726064 0.93047106
-0.31159124 4.2664309 0.93001264
-0.30699936 4.2602572 0.9295482
-0.30240488 4.2540832 0.92908329
-0.29786447 4.2478623 0.92865509
-0.29334834 4.2416167 0.92824429
-0.2889035 4.2353129 0.92788118
-0.28455901 4.2289271 0.92758507
-0.28024498 4.2225175 0.92730796
-0.27597314 4.2160692 0.92706072
-0.27178451 4.2095566 0.92686707
-0.26760229 4.2030373 0.92667842
-0.26343295 4.1965046 0.92649883
-0.25932628 4.1899242 0.92636043
-0.2551555 4.1833911 0.92618036
-0.25102141 4.1768289 0.92602509
-0.24685448 4.1702895 0.92584884
-0.24264723 4.1637793 0.92564589
-0.23843355 4.1572728 0.92544055
-0.23412573 4.1508331 0.925174
-0.22982815 4.1443853 0.92491454
-0.22542667 4.1380119 0.92458862
-0.22101398 4.1316428 0.92425644
-0.21654338 4.1253147 0.9238888
-0.21201771 4.1190248 0.92348492
-0.21973261 4.1037869 0.9309395
-0.2104256 4.0914407 0.92995727
-0.33745009 4.3835444 0.91978014
-0.33896574 4.3722186 0.92340273
-0.33899572 4.3621635 0.92602694
-0.33799362 4.3529887 0.92795962
-0.33622578 4.3444667 0.92937702
-0.33383143 4.336472 0.93037605
-0.33095688 4.3288822 0.93105382
-0.32768217 4.3216252 0.93146563
-0.32406074 4.3146548 0.93164736
-0.32010207 4.307961 0.93160576
-0.31588265 4.301477 0.93139189
-0.31142828 4.2951808 0.93102396
-0.30677873 4.2890372 0.93052834
-0.30198497 4.2830067 0.92993808
-0.2970928 4.2770486 0.92928511
-0.29216701 4.271112 0.92861187
-0.28725028 4.265162 0.92794532
-0.28237167 4.2591767 0.92730618
-0.27763084 4.2530756 0.92675763
-0.2730251 4.2468653 0.92629963
-0.2685478 4.24055 0.92592573
-0.26424333 4.234098 0.92566538
-0.26001725 4.2275815 0.9254567
-0.25592318 4.220963 0.92533427
-0.25201598 4.2141986 0.92533445
-0.24811359 4.2074313 0.92533672
-0.24432148 4.2005792 0.92541021
-0.24057013 4.1936965 0.9255107
-0.23683761 4.186799 0.92562288
-0.23309915 4.1799097 0.92573029
-0.22933494 4.1730385 0.92582142
-0.22550161 4.1662221 0.92586851
-0.2216292 4.1594338 0.92588985
-0.21765907 4.1527195 0.92584807
-0.21364556 4.1460361 0.92577881
-0.20953149 4.1394262 0.92564428
-0.20537452 4.1328483 0.92548305
-0.32221413 4.3549738 0.92894816
-0.31996131 4.3468351 0.93004382
-0.31710672 4.3392005 0.93074059
-0.31381226 4.3319321 0.93114406
-0.31004876 4.3250494 0.93123806
-0.3058863 4.3184929 0.93107015
-0.30137518 4.3122153 0.93067247
-0.29649946 4.3062286 0.93003714
-0.29132557 4.300477 0.9292078
-0.28582138 4.2949829 0.92816204
-0.28001761 4.2897172 0.92692459
-0.27409014 4.2845387 0.92560852
-0.26798132 4.2794943 0.92417663
-0.25571999 4.2693987 0.92129534
-0.21805589 4.2100282 0.91978025
-0.21617943 4.2016735 0.92110038
-0.21398981 4.1935678 0.92221671
-0.21145535 4.1857319 0.92310786
-0.20866252 4.1780958 0.92383283
-0.20568623 4.1706052 0.92443669
-0.20254974 4.1632376 0.92493808
-0.27996197 4.3185692 0.92805284
-0.27356526 4.3137646 0.9264369
-0.2663008 4.309638 0.92425799
-0.25761592 4.3066268 0.92115849
-0.58875346 4.3814678 0.74505544
-0.60492253 4.3650222 0.75748229
-0.60387611 4.359159 0.75667858
-0.60277724 4.3533239 0.75583363
-0.60156751 4.3475523 0.75490475
-0.60032105 4.3417969 0.75394607
-0.59907436 4.3360372 0.75298738
-0.59779978 4.3302879 0.75200796
-0.59642935 4.3245931 0.75095487
-0.58629012 4.32412 0.74316216
-0.57530928 4.3937011 0.74298143
-0.58511519 4.3811231 0.75049281
-0.60327888 4.3634701 0.76440549
-0.60943604 4.3532171 0.76912141
-0.60802364 4.3475909 0.7680397
-0.60661101 4.3419609 0.76695728
-0.60515428 4.3363509 0.76584196
-0.603688 4.3307409 0.76471877
-0.60222149 4.3251252 0.7635951
-0.6007514 4.3195038 0.76247001
-0.59333992 4.3174171 0.75679255
-0.56423593 4.4044919 0.74276638
-0.5715239 4.3934379 0.7483294
-0.581532 4.3807449 0.75596905
-0.60305715 4.361052 0.77240038
-0.61268377 4.3486991 0.77974844
-0.61117101 4.3431492 0.77859378
-0.60965681 4.3375931 0.77743793
-0.60814142 4.3320332 0.7762816
-0.60662508 4.326467 0.7751236
-0.60510683 4.3208952 0.77396464
-0.60342264 4.3154163 0.77267981
-0.59671664 4.3129172 0.76756024
-0.61615944 4.3505058 0.79051161
-0.61463952 4.3449793 0.7893548
-0.61311698 4.3394461 0.78819633
-0.61159158 4.333909 0.78703642
-0.61006689 4.3283653 0.7858758
-0.60854006 4.3228168 0.7847147
-0.6070118 4.3172622 0.78355241
-0.60463548 4.3122082 0.78174376
-0.59849095 4.309381 0.77706981
-0.56151056 4.3247809 0.74893737
-0.54622769 4.4235592 0.745579
-0.61728907 4.3472891 0.79945517
-0.61578536 4.3417611 0.79831457
-0.61427999 4.3362279 0.79717278
-0.61276484 4.3306952 0.79602408
-0.61124516 4.3251572 0.79487324
-0.60972548 4.3196139 0.79372072
-0.60820508 4.314065 0.79256773
-0.60496569 4.3095331 0.79011178
-0.59925556 4.3064532 0.78578258
-0.56957531 4.3175201 0.76327968
-0.56072855 4.3161898 0.7565732
-0.54919028 4.3164043 0.74782467
-0.53185558 4.4496651 0.74296641
-0.53511715 4.4410219 0.7454319
-0.53872371 4.432179 0.74815607
-0.61779189 4.3444619 0.80789733
-0.61630487 4.338932 0.80677485
-0.61481714 4.333396 0.80565071
-0.61332822 4.3278561 0.80452514
-0.61183691 4.32231 0.80339813
-0.61034513 4.3167591 0.80227137
-0.60885143 4.311202 0.80114222
-0.60474277 4.3071942 0.79803777
-0.59932971 4.3039422 0.79394865
-0.57293105 4.313056 0.77400231
-0.56578898 4.3107328 0.76860571
-0.55795646 4.308785 0.76268768
-0.54886699 4.3075399 0.75582051
-0.53680706 4.3079853 0.74670744
-0.52344036 4.4655027 0.74489307
-0.52607632 4.457233 0.74687743
-0.52892065 4.4488449 0.74901891
-0.53203392 4.4403 0.75136375
-0.61779666 4.3419452 0.81594133
-0.6163559 4.3363943 0.81485653
-0.61491275 4.3308392 0.81377101
-0.61346912 4.3252783 0.81268358
-0.61201501 4.3197179 0.81158853
-0.61054373 4.3141623 0.81048059
-0.60906124 4.3086071 0.80936456
-0.60403323 4.305151 0.80557775
-0.58053064 4.312603 0.78788137
-0.5745039 4.3096561 0.7833426
-0.56817198 4.3068628 0.77857518
-0.5614543 4.3042698 0.77351642
-0.55422163 4.30195 0.76807046
-0.54628348 4.3000102 0.76209331
-0.53694487 4.2988491 0.75506163
-0.5241766 4.2996283 0.74544692
-0.51860309 4.4724889 0.74952388
-0.5209074 4.4644232 0.75125384
-0.52339625 4.4562511 0.75312138
-0.52608228 4.4479671 0.75513673
-0.61880898 4.3452339 0.8247211
-0.61743164 4.3396592 0.8236866
-0.61602759 4.3340921 0.82263398
-0.61461473 4.328526 0.82157373
-0.61320019 4.3229542 0.82051206
-0.61178422 4.317378 0.81944919
-0.61036801 4.3117962 0.81838632
-0.60777068 4.3069119 0.81643796
-0.6029017 4.3033619 0.81278324
-0.58066297 4.3100562 0.79609489
-0.57503796 4.3068771 0.79187393
-0.56920385 4.3037968 0.78749657
-0.56311679 4.3008413 0.78292775
-0.55671787 4.2980413 0.77812648
-0.54992223 4.2954459 0.77302742
-0.54260206 4.2931261 0.76753378
-0.53451753 4.2912159 0.76146674
-0.52496839 4.2901139 0.75430155
-0.51109719 4.2914472 0.74389172
-0.51431227 4.4791307 0.75456786
-0.51634765 4.471231 0.75609064
-0.5185082 4.4632607 0.7577064
-0.52083397 4.4551978 0.75944495
-0.61803913 4.343194 0.83213997
-0.61669707 4.3376031 0.8311367
-0.61535358 4.332006 0.83013201
-0.61400747 4.326405 0.8291254
-0.61263299 4.320816 0.82809711
-0.61124992 4.3152261 0.82706332
-0.60986662 4.3096313 0.82602787
-0.60616136 4.3054099 0.82325816
-0.60143876 4.3017759 0.81972623
-0.58014154 4.3079023 0.80379796
-0.5748539 4.3045273 0.79984426
-0.56939077 4.3012333 0.79575872
-0.56371355 4.2980423 0.79151344
-0.55782437 4.294951 0.78710818
-0.55167794 4.291985 0.78251195
-0.54521227 4.2891779 0.77767658
-0.53833938 4.2865791 0.77253628
-0.53092766 4.2842598 0.76699448
-0.52265429 4.2824039 0.76080704
-0.51293278 4.2813382 0.75353599
-0.49776983 4.2833204 0.74219632
-0.51235986 4.4776797 0.76135492
-0.514256 4.4698749 0.76276827
-0.51626587 4.4620047 0.7642653
-0.61823368 4.346971 0.84026074
-0.61697531 4.3413382 0.839324
-0.61569285 4.3357153 0.83836794
-0.61438918 4.3301001 0.83739662
-0.61308551 4.3244801 0.83642411
-0.61177945 4.3188553 0.83545089
-0.61044765 4.3132401 0.83445859
-0.60869408 4.3078709 0.83315182
-0.60425067 4.304091 0.82983971
-0.58407187 4.309598 0.8148005
-0.57916665 4.3060198 0.81114531
-0.57409215 4.3025231 0.80736375
-0.56889534 4.2990761 0.80349016
-0.55806684 4.2923722 0.79541922
-0.55233932 4.2891669 0.79115129
-0.54639459 4.2860651 0.78672051
-0.54018545 4.2830901 0.78209281
-0.53365088 4.2802753 0.77722287
-0.52670026 4.2776723 0.77204204
-0.51919889 4.2753534 0.76645112
-0.51073337 4.27355 0.7601428
-0.50067973 4.2726092 0.75264955
-0.50888658 4.4838028 0.7670002
-0.51058149 4.4761219 0.76825905
-0.51234365 4.4684072 0.76956773
-0.48279047 4.4802847 0.74761677
-0.47565389 4.4780669 0.74231648
-0.47786665 4.4566579 0.74396062
-0.61683869 4.3453159 0.84717989
-0.61562848 4.3396592 0.84628057
-0.61441541 4.3339992 0.84538031
-0.6131773 4.3283491 0.84446025
-0.6119163 4.3227072 0.8435235
-0.61065555 4.3170609 0.84258676
-0.60939074 4.3114109 0.84164834
-0.60640264 4.3067808 0.83942819
-0.60208154 4.302928 0.83621907
-0.58249068 4.3080759 0.8216691
-0.57773423 4.3044128 0.81813598
-0.57288837 4.3007832 0.81453609
-0.56794643 4.2971892 0.81086564
-0.56283903 4.2936721 0.80707216
-0.55759931 4.2902098 0.80318093
-0.55221868 4.286809 0.79918408
-0.54667616 4.2834783 0.79506731
-0.54091215 4.2802525 0.79078674
-0.53491163 4.2771382 0.78633022
-0.52864122 4.2741523 0.78167295
-0.52203846 4.2713313 0.77676821
-0.51500869 4.2687235 0.77154708
-0.50738263 4.2664232 0.76588273
-0.49875665 4.2646542 0.75947642
-0.48835325 4.2638435 0.75174952
-0.50585842 4.4896421 0.77297044
-0.5074091 4.4820538 0.77411866
-0.50898933 4.474453 0.77528787
-0.48228669 4.4845819 0.75552273
-0.47491813 4.4825249 0.75006938
-0.47027349 4.4787431 0.74663138
-0.46715498 4.4739952 0.74432278
-0.47512317 4.4623771 0.75022054
-0.47219658 4.4575081 0.7480545
-0.46929789 4.4526091 0.74590826
-0.46652031 4.4476252 0.74385309
-0.61630011 4.3495293 0.85471845
