# .PCD v0.7 - Point Cloud Data file format
VERSION 0.7
FIELDS x y z
SIZE 4 4 4
TYPE F F F
COUNT 1 1 1
WIDTH 1511
HEIGHT 1
VIEWPOINT 0 0 0 1 0 0 0
POINTS 1511
DATA ascii
-1.7569684 4.1245427 0.84152883
-1.7484778 4.1262693 0.83508605
-1.7391539 4.1290345 0.82766926
-1.728668 4.1332579 0.81889153
-1.7163397 4.1398072 0.8079499
-1.6996591 4.1519108 0.79187471
-1.8527364 4.2784128 0.85405332
-1.8565692 4.2629032 0.86271012
-1.8578215 4.2512422 0.86811626
-1.8578894 4.2413516 0.87202889
-1.8572563 4.2325134 0.87505555
-1.8560759 4.2244921 0.87739193
-1.8544351 4.217154 0.87915009
-1.8525573 4.2101698 0.88060957
-1.8503903 4.2036128 0.88170749
-1.847942 4.1974649 0.8824538
-1.8453833 4.191483 0.88305974
-1.8424932 4.1859717 0.88325834
-1.8395207 4.1805797 0.88335538
-1.8363115 4.1755219 0.88316041
-1.8329707 4.1706452 0.88280487
-1.8294519 4.1660142 0.88223356
-1.8257576 4.161623 0.88145012
-1.8219264 4.1574125 0.88050437
-1.8178785 4.1534958 0.87929475
-1.8137251 4.1497111 0.87796354
-1.8092955 4.146296 0.87630153
-1.8047986 4.1429582 0.87456226
-1.7999395 4.1400981 0.87239158
-1.7949845 4.1373496 0.87011248
-1.7896886 4.1350412 0.86743122
-1.7841582 4.1330285 0.86447513
-1.7783614 4.1313462 0.86120874
-1.7720668 4.130302 0.85735762
-1.7654616 4.1296377 0.85314584
-1.7584087 4.1295342 0.84841353
-1.750688 4.1302719 0.8428998
-1.7423631 4.1317573 0.83668417
-1.7332407 4.1342397 0.82954085
-1.7230073 4.1381106 0.82110101
-1.711125 4.1440587 0.81073433
-1.6957415 4.1544571 0.79625714
-1.8417935 4.2914395 0.8494212
-1.8478247 4.2726798 0.86079812
-1.8495427 4.2603178 0.86677343
-1.8499159 4.2499619 0.87105978
-1.8494428 4.2408695 0.87428355
-1.848328 4.2327347 0.87670046
-1.8468504 4.2251396 0.87866288
-1.8451052 4.217947 0.88028753
-1.8429387 4.2113695 0.88138926
-1.8405988 4.2050471 0.88227475
-1.8380487 4.1990309 0.88289833
-1.8352398 4.193387 0.88320279
-1.8323455 4.1878648 0.88340157
-1.8291363 4.1827865 0.88321573
-1.8258746 4.1777816 0.8829664
-1.8223464 4.1731429 0.88239276
-1.818727 4.1686258 0.88171107
-1.8148867 4.1644115 0.88076293
-1.8109115 4.1603723 0.87965608
-1.8067466 4.1565852 0.87832201
-1.8023932 4.1530447 0.87676483
-1.7978837 4.1497059 0.87502468
-1.7931043 4.1467171 0.8729648
-1.7882129 4.1438637 0.87077743
-1.7829275 4.141521 0.86812431
-1.7775005 4.139349 0.86531007
-1.7716839 4.1376743 0.86203957
-1.7655122 4.136445 0.85835648
-1.7590402 4.1355844 0.85432541
-1.7519639 4.1354914 0.84958977
-1.7443889 4.1360164 0.84427488
-1.7362326 4.1372609 0.83828872
-1.7273109 4.1394596 0.831415
-1.7173344 4.1429749 0.82331628
-1.7058004 4.1484494 0.81340271
-1.6917012 4.1571612 0.80049944
-1.8283602 4.3081021 0.84176725
-1.8382883 4.2835984 0.85795528
-1.8410131 4.269742 0.8651669
-1.8417321 4.258863 0.86987466
-1.841441 4.2494869 0.87331939
-1.8405433 4.2410169 0.87600493
-1.8392333 4.2331614 0.87817448
-1.8375152 4.2259083 0.87983561
-1.8354529 4.219161 0.8810696
-1.8332251 4.2126613 0.88209528
-1.8306711 4.2066312 0.88271934
-1.8279576 4.2008319 0.8831479
-1.8250567 4.1952991 0.88334674
-1.8219324 4.1900811 0.88327193
-1.8187079 4.1850023 0.88307607
-1.8152126 4.1802998 0.88255215
-1.8116701 4.1756568 0.88197374
-1.8078184 4.1714363 0.88102412
-1.8039193 4.1672745 0.88001877
-1.7997427 4.1634846 0.87868237
-1.7954654 4.1598201 0.87723035
-1.7909417 4.1564803 0.87548655
-1.7862443 4.1533608 0.87353992
-1.7813376 4.1505075 0.87134898
-1.776143 4.1480241 0.86882073
-1.7708002 4.1457176 0.86612564
-1.7649839 4.1440229 0.86287379
-1.7589372 4.1426077 0.85935873
-1.7524884 4.1416965 0.8553775
-1.745499 4.1414671 0.85076815
-1.7380713 4.1417785 0.84565443
-1.7300842 4.1427803 0.83989668
-1.7213563 4.1447043 0.83328271
-1.7116106 4.1479001 0.82548982
-1.7004641 4.1528502 0.81607562
-1.6868783 4.1608753 0.80382639
-1.6665081 4.1775403 0.78366196
-1.8286648 4.2946234 0.85506386
-1.8321972 4.2795677 0.86325729
-1.833382 4.2679892 0.86853135
-1.8333985 4.2581472 0.87235099
-1.8327206 4.2493401 0.87530494
-1.8315585 4.2412505 0.87765682
-1.8298647 4.2339444 0.87934864
-1.8279352 4.2269869 0.88074929
-1.8257681 4.2203803 0.8818531
-1.823261 4.2142625 0.88254154
-1.8206443 4.2083063 0.88309312
-1.8177381 4.2027631 0.88329118
-1.8146995 4.1974039 0.88332844
-1.811468 4.1923165 0.88313276
-1.808051 4.1874852 0.88271326
-1.8045033 4.1828294 0.88213813
-1.8007234 4.1784897 0.88128489
-1.7968587 4.1742601 0.88033289
-1.7927115 4.1704106 0.87904418
-1.7885121 4.1666198 0.87769771
-1.7839744 4.1632771 0.87595129
-1.7793603 4.160027 0.87411743
-1.774437 4.1571755 0.87192291
-1.7693329 4.1545496 0.86951935
-1.7639738 4.152247 0.86681974
-1.758262 4.1503925 0.86371112
-1.7523419 4.1487894 0.86036503
-1.7458704 4.1478882 0.85637903
-1.7390134 4.1474633 0.85194916
-1.7317334 4.1475582 0.84703612
-1.7238356 4.1484237 0.8414095
-1.7151611 4.1502571 0.83488947
-1.7056179 4.1531687 0.82736951
-1.6948624 4.1575875 0.81845373
-1.6820501 4.1645942 0.80715954
-1.6643585 4.1777835 0.79020226
-1.817737 4.3075352 0.85062623
-1.8233318 4.2894473 0.86133689
-1.8249892 4.2771626 0.8671816
-1.8253164 4.26685 0.87137759
-1.8248621 4.257699 0.87460297
-1.8237046 4.2495852 0.87695962
-1.8221779 4.2420182 0.87885863
-1.8203847 4.2348456 0.880427
-1.818216 4.2282205 0.88153374
-1.8158211 4.2219262 0.88236225
-1.8132615 4.2158689 0.88298988
-1.8103892 4.2102561 0.88323635
-1.8074367 4.2047582 0.88338536
-1.8041979 4.1996598 0.88318902
-1.8008609 4.1946988 0.88287461
-1.7973036 4.1900358 0.88229781
-1.7936 4.1855707 0.88154751
-1.7897251 4.1813369 0.8805927
-1.7856526 4.1773624 0.87940645
-1.7814479 4.1735606 0.87806499
-1.7769814 4.1701021 0.87641633
-1.7724229 4.1667547 0.87466371
-1.7675126 4.163868 0.87249851
-1.7624998 4.1610985 0.87022007
-1.7571231 4.1587992 0.86751711
-1.7515162 4.1567845 0.86455029
-1.7456248 4.1551228 0.86125767
-1.7392288 4.1541009 0.857382
-1.7325081 4.1534777 0.85313475
-1.7253282 4.1534214 0.8483628
-1.7174531 4.1542373 0.84279048
-1.7089494 4.1558266 0.83649999
-1.6996115 4.1584487 0.82925415
-1.6891136 4.1625137 0.82067806
-1.6768914 4.1687341 0.81011879
-1.6607696 4.179882 0.79505521
-1.8049903 4.3230762 0.84403062
-1.8138762 4.3001685 0.85874748
-1.8164762 4.2864947 0.86573291
-1.8171151 4.2757106 0.87030333
-1.8167639 4.2663894 0.87365174
-1.8158149 4.2579556 0.87626106
-1.8144569 4.2501273 0.87836665
-1.8127471 4.242816 0.88003945
-1.8106302 4.2360973 0.88121289
-1.8083476 4.2296233 0.88218254
-1.8057848 4.2235508 0.88281041
-1.8030095 4.2177835 0.88318062
-1.8000923 4.2122149 0.88337988
-1.7968979 4.2070355 0.88324594
-1.7936409 4.2019405 0.88303602
-1.7900761 4.1972704 0.8824597
-1.7864491 4.1926794 0.88180995
-1.7825633 4.1884408 0.88085347
-1.7785683 4.1843419 0.8797704
-1.7743496 4.1805372 0.87842607
-1.7699618 4.1769524 0.87688416
-1.7653898 4.1736045 0.87512821
-1.7605609 4.1705852 0.8730765
-1.7555976 4.1677308 0.87087077
-1.7502482 4.1653748 0.86821645
-1.7447468 4.1631994 0.86539263
-1.7388356 4.1615453 0.86209428
-1.7325667 4.1603346 0.85838878
-1.7259815 4.1595116 0.85432386
-1.7187773 4.1594682 0.84954602
-1.7110521 4.1600666 0.84417653
-1.7027198 4.1614108 0.83811533
-1.6935881 4.1637459 0.83114171
-1.683352 4.16745 0.82290691
-1.6714847 4.1731906 0.8128041
-1.6568007 4.182467 0.79946887
-1.804116 4.3113122 0.85584366
-1.8075374 4.2964258 0.86381537
-1.808651 4.284935 0.86895406
-1.8086122 4.2751431 0.87267977
-1.8078864 4.2663674 0.87555933
-1.8067011 4.2582726 0.87787449
-1.8049927 4.2509403 0.87954992
-1.8030105 4.2440095 0.88089043
-1.8008422 4.2373538 0.88200068
-1.7982758 4.2312655 0.88263142
-1.795597 4.2253428 0.88312411
-1.7926754 4.2197604 0.88332456
-1.7895675 4.2144394 0.88330221
-1.7863141 4.209322 0.88310462
-1.7828183 4.2045341 0.88261986
-1.7792422 4.1998549 0.88204139
-1.7753744 4.1955709 0.88111705
-1.7714547 4.1913476 0.88013554
-1.767225 4.1875405 0.87878835
-1.7629154 4.1838288 0.87735277
-1.7583301 4.1804795 0.87559539
-1.753585 4.1773272 0.8736552
-1.7486055 4.1744742 0.87144661
-1.743348 4.1719751 0.86891741
-1.7379229 4.1696787 0.86619967
-1.7320225 4.1679878 0.86293495
-1.7258822 4.1665888 0.85939819
-1.719322 4.1657128 0.85538381
-1.7122054 4.1655335 0.85073298
-1.704631 4.1659131 0.84556544
-1.6964712 4.1670136 0.8397333
-1.687548 4.1690569 0.83303303
-1.677578 4.1723976 0.82514197
-1.666069 4.1776538 0.8154968
-1.6520336 4.1860752 0.80296415
-1.6290203 4.2058697 0.78012156
-1.7934138 4.3238025 0.85185587
-1.7985471 4.3064122 0.86188644
-1.8001407 4.294208 0.86759835
-1.8004193 4.2839408 0.87170208
-1.7999218 4.2748194 0.87485528
-1.798782 4.2666378 0.87722552
-1.7972028 4.2591009 0.87905818
-1.7953582 4.2519555 0.88056606
-1.7931881 4.2452817 0.88168085
-1.7907354 4.2390146 0.88245171
-1.7881547 4.2329311 0.88306856
-1.7852284 4.2273383 0.88326883
-1.7822088 4.2218752 0.88335848
-1.7789476 4.2167449 0.8831616
-1.7755319 4.2118287 0.88278121
-1.7719471 4.2071404 0.88220203
-1.768155 4.2027311 0.88137996
-1.7642459 4.1984758 0.88041967
-1.7600722 4.1945701 0.87915331
-1.7558254 4.1907544 0.87780207
-1.7512428 4.1873794 0.8760621
-1.7465831 4.184094 0.87423724
-1.7415881 4.1812434 0.87202388
-1.7364239 4.1785984 0.86962104
-1.7309803 4.1763053 0.86689925
-1.7251866 4.1744537 0.86377704
-1.7191752 4.172863 0.86041147
-1.7125936 4.1719966 0.85639203
-1.7056131 4.171618 0.85192406
-1.6981901 4.1717801 0.84695667
-1.6901417 4.1727142 0.84128046
-1.6812752 4.1746626 0.8346777
-1.6715038 4.1777258 0.82705098
-1.6604638 4.1823583 0.81798691
-1.6471344 4.1898499 0.80631763
-1.6282011 4.2044039 0.78824985
-1.7813898 4.3381844 0.84633809
-1.7891825 4.3169246 0.85955757
-1.7915881 4.3035288 0.86623812
-1.7921855 4.2927828 0.87071943
-1.7917869 4.2834978 0.8739894
-1.7907836 4.2751007 0.87652284
-1.789377 4.2673001 0.8785646
-1.7876709 4.2599378 0.8802405
-1.7855006 4.2532434 0.88135862
-1.7831604 4.2467971 0.88226962
-1.7805895 4.2406816 0.88290298
-1.7777487 4.2349467 0.88321328
-1.774817 4.229342 0.88341451
-1.7715493 4.2242026 0.88321811
-1.7682164 4.2191505 0.88294452
-1.7646227 4.2144556 0.88236362
-1.760909 4.209918 0.88164479
-1.7569883 4.2056575 0.88068211
-1.7528925 4.2016277 0.87951773
-1.7486322 4.1978083 0.8781653
-1.7441289 4.1943073 0.87653142
-1.7395074 4.1909513 0.87476403
-1.7345449 4.188035 0.87260431
-1.7294753 4.1852441 0.87032801
-1.7240142 4.1829557 0.86760169
-1.7183284 4.1809402 0.86462367
-1.7123398 4.1793008 0.86130339
-1.7058407 4.1783037 0.85740125
-1.6989985 4.1777229 0.85311604
-1.6916875 4.1777196 0.84830242
-1.6836525 4.1786151 0.84267056
-1.6749618 4.1803155 0.836299
-1.6653996 4.1830869 0.82894689
-1.6546233 4.1873569 0.82022583
-1.6420422 4.1938701 0.80946159
-1.6251242 4.2058253 0.79377091
-1.7792833 4.3281879 0.85664093
-1.7825847 4.3134789 0.86438525
-1.7836213 4.302083 0.86938542
-1.7835234 4.292346 0.87301362
-1.782748 4.2836037 0.87581861
-1.7815146 4.2755361 0.87806791
-1.779815 4.2681451 0.8797543
-1.7777781 4.2612419 0.88103497
-1.7755543 4.254612 0.88208902
-1.7729789 4.2484827 0.88272256
-1.770238 4.242588 0.88315755
-1.7673006 4.2369704 0.88335896
-1.7641213 4.231689 0.88327485
-1.7608446 4.2265396 0.88307607
-1.7572683 4.2217999 0.88252574
-1.753635 4.2171335 0.88190961
-1.7497019 4.2128692 0.88094527
-1.7456845 4.2087111 0.87988502
-1.7414128 4.2048893 0.8785305
-1.7369895 4.2012587 0.87700289
-1.7323527 4.1979027 0.87523216
-1.7274755 4.1948538 0.87318635
-1.7224387 4.1919994 0.87096274
-1.7170219 4.18963 0.86830509
-1.7114451 4.1874504 0.86547148
-1.7054361 4.1858177 0.86214644
-1.6990656 4.1846318 0.85841447
-1.6923631 4.1838474 0.85431308
-1.6850266 4.183856 0.84949446
-1.6771452 4.1845326 0.84406495
-1.6686305 4.1859851 0.83792531
-1.659277 4.1884651 0.83084536
-1.6487701 4.1923699 0.82246828
-1.6365517 4.1983933 0.81216502
-1.6211061 4.208447 0.79821563
-1.768823 4.340239 0.85311341
-1.7734699 4.3235736 0.86244988
-1.7749951 4.3114548 0.8680259
-1.7752193 4.3012371 0.8720336
-1.7746742 4.2921486 0.87511098
-1.7735549 4.2838974 0.87749642
-1.7719188 4.2763953 0.87926048
-1.7700218 4.2692757 0.88070965
-1.7678515 4.2625499 0.88183063
-1.7653363 4.2563148 0.88254166
-1.7626954 4.2502623 0.88310039
-1.7597526 4.2446322 0.88330323
-1.7566622 4.2392063 0.88333231
-1.753378 4.2340479 0.88313234
-1.7498834 4.2291751 0.88268787
-1.7462692 4.224462 0.88210362
-1.7423872 4.220108 0.88121009
-1.7384406 4.2158346 0.8802433
-1.7341646 4.2119989 0.8788954
-1.7298223 4.2082381 0.87747604
-1.7251714 4.2048812 0.87570196
-1.7203802 4.2016964 0.87377173
-1.715326 4.1988444 0.87154239
-1.7100046 4.1963291 0.86901158
-1.7044923 4.1940432 0.86627048
-1.698508 4.1923585 0.86299187
-1.6922681 4.1909804 0.85943133
-1.6855925 4.1901407 0.85538191
-1.6783457 4.1900134 0.85068959
-1.6706177 4.1904693 0.8454622
-1.6622787 4.1916723 0.83955258
-1.6531397 4.1938572 0.83274841
-1.6429019 4.1973929 0.82471651
-1.6310519 4.2029262 0.81487399
-1.6165365 4.211771 0.80203766
-1.5900397 4.2357125 0.77565932
-1.7573204 4.3537683 0.84840673
-1.7642026 4.3338704 0.86038536
-1.7663208 4.3208795 0.86665738
-1.7668718 4.3101768 0.87104642
-1.7665071 4.3008089 0.87433636
-1.765447 4.2924547 0.87679142
-1.7639866 4.2846837 0.87876523
-1.7622299 4.2773457 0.88038319
-1.760059 4.2706017 0.8815068
-1.7576604 4.2641835 0.88235986
-1.7550802 4.2580261 0.88299626
-1.7521719 4.2523265 0.8832463
-1.7491726 4.2467546 0.88339007
-1.7458805 4.2415867 0.88318938
-1.7424703 4.2365785 0.88285232
-1.7388461 4.2318587 0.8822667
-1.735043 4.2273765 0.88147515
-1.7310858 4.2230978 0.88050669
-1.726887 4.2191358 0.87926155
-1.7225851 4.215302 0.87790054
-1.7179625 4.2118864 0.87617296
-1.7132578 4.2085652 0.87435645
-1.7081876 4.2057157 0.87212497
-1.7029612 4.203053 0.86971951
-1.697432 4.2007713 0.86697507
-1.6915555 4.1989222 0.86383998
-1.6854486 4.1973491 0.86045104
-1.6787503 4.1965203 0.85639679
-1.6716424 4.1961899 0.85188711
-1.6640694 4.196424 0.84686208
-1.6558653 4.1974316 0.84113503
-1.6468002 4.199501 0.83444601
-1.6367874 4.2027273 0.82670343
-1.6254487 4.2075849 0.81748283
-1.6115637 4.2156043 0.80541211
-1.5912621 4.2316589 0.7861321
-1.739399 4.376502 0.83614033
-1.7541666 4.3452468 0.85746324
-1.7573363 4.3307319 0.86496896
-1.7582898 4.3194342 0.86982828
-1.7581286 4.3097563 0.87335443
-1.7573004 4.3010526 0.87608266
-1.7560174 4.2930102 0.87826663
-1.7543263 4.2855606 0.87996328
-1.7522316 4.2786884 0.88118196
-1.7499503 4.2720852 0.88217783
-1.7473661 4.265913 0.88281518
-1.744559 4.2600522 0.88319129
-1.741606 4.2543979 0.88339388
-1.7383529 4.249155 0.88324732
-1.7350255 4.2440133 0.88301539
-1.7313925 4.2392859 0.8824293
-1.7276702 4.2346735 0.8817414
-1.7237015 4.2303901 0.88077086
-1.7195821 4.2262993 0.87962937
-1.7152667 4.2224646 0.87826526
-1.7107263 4.2189183 0.87664586
-1.7060393 4.2155538 0.87486297
-1.7010231 4.2126112 0.87270826
-1.695893 4.2098002 0.87043101
-1.6903465 4.2075224 0.86768156
-1.68458 4.2055073 0.86469209
-1.6784905 4.2038908 0.86134201
-1.671883 4.2029223 0.85741293
-1.6649159 4.2023888 0.85308748
-1.6574697 4.2024388 0.84823048
-1.6492684 4.203423 0.84253353
-1.64038 4.2052407 0.83607709
-1.6305821 4.2081723 0.82861054
-1.6195123 4.2126637 0.81973386
-1.6065497 4.2194881 0.80875248
-1.5887668 4.232326 0.79238158
-1.7439622 4.3568473 0.85440034
-1.7480938 4.3409343 0.86302722
-1.7495438 4.3289075 0.8684628
-1.7497096 4.3187461 0.87237108
-1.749115 4.3096905 0.87537217
-1.7480116 4.3013744 0.87776762
-1.7463214 4.2939038 0.87946755
-1.7443688 4.2868114 0.8808555
-1.7421978 4.2800345 0.88198334
-1.739619 4.2738342 0.88263267
-1.7369149 4.2678113 0.88313437
-1.7339559 4.2621441 0.88333791
-1.7307922 4.2567573 0.88330436
-1.7274859 4.2515674 0.8831048
-1.7239079 4.2467432 0.88259262
-1.7202642 4.2420044 0.88200462
-1.7162881 4.2377105 0.88103712
-1.7122486 4.2334914 0.87999934
-1.7079213 4.2296524 0.87863261
-1.7034615 4.2259774 0.87712049
-1.6987612 4.2226105 0.87533522
-1.6938316 4.2195334 0.87329513
-1.6887184 4.2166791 0.87105221
-1.6832335 4.2142978 0.86839068
-1.6775784 4.2121177 0.8655445
-1.6714678 4.2105093 0.86219084
-1.6649922 4.2093477 0.85843217
-1.6581677 4.2086072 0.85429025
-1.6506958 4.2086697 0.84942871
-1.6426508 4.2094312 0.84393579
-1.633942 4.2109981 0.83771181
-1.6243567 4.2136354 0.83051914
-1.6135632 4.2177539 0.82199067
-1.6009719 4.2240834 0.81147194
-1.5846963 4.2349887 0.79685587
-1.7323041 4.3705029 0.84968942
-1.7387979 4.3511963 0.86107379
-1.7407502 4.3384347 0.86708999
-1.7412481 4.3277817 0.87138176
-1.7408899 4.3183713 0.87465793
-1.7397963 4.3100209 0.87706453
-1.7382807 4.3022828 0.87897021
-1.7364719 4.2949705 0.88052779
-1.7342987 4.2881756 0.88165808
-1.7318393 4.2817888 0.88245106
-1.729237 4.2756038 0.88307792
-1.7262723 4.2699242 0.88328129
-1.7232004 4.2643905 0.88336134
-1.719885 4.259192 0.88316065
-1.7163941 4.2542305 0.88275641
-1.7127403 4.249485 0.8821677
-1.708845 4.2450604 0.88130313
-1.7048507 4.2407613 0.88032806
-1.700546 4.2368712 0.87900066
-1.6961703 4.2330637 0.87759578
-1.6914537 4.2296968 0.87580788
-1.6866133 4.2264805 0.87388271
-1.6814828 4.22363 0.87163496
-1.6760939 4.2211013 0.86910033
-1.6704952 4.2188258 0.86633635
-1.6644213 4.2171488 0.86304152
-1.6580786 4.2157931 0.85945427
-1.6512855 4.214992 0.85537004
-1.6439011 4.214922 0.85063171
-1.6360124 4.2154589 0.84534138
-1.6274828 4.2167749 0.83934742
-1.618116 4.2191133 0.83243269
-1.6075988 4.222857 0.82425129
-1.5953799 4.2286916 0.81419283
-1.5803522 4.2379947 0.80102879
-1.7181412 4.387711 0.84211349
-1.7287598 4.3624973 0.85830617
-1.7317863 4.3481851 0.86556751
-1.7326499 4.3369937 0.87027925
-1.7324243 4.3273749 0.87370652
-1.7315377 4.3187132 0.87635362
-1.7302029 4.3107014 0.87847066
-1.7285203 4.3031926 0.8801775
-1.7263652 4.2963529 0.8813321
-1.724025 4.2897778 0.8822695
-1.7214315 4.2835612 0.88291067
-1.7185559 4.2777367 0.88322532
-1.7155784 4.2720556 0.88342005
-1.7122554 4.2668457 0.88321865
-1.708848 4.2617483 0.88292116
-1.7051852 4.2569952 0.88233078
-1.7013711 4.2524395 0.88157088
-1.6973655 4.248136 0.8805936
-1.6931412 4.2441168 0.87936944
-1.6887822 4.2402682 0.87799531
-1.6841185 4.2368102 0.87628204
-1.6793665 4.2334547 0.87447244
-1.6742204 4.2306056 0.87222117
-1.6689297 4.2279272 0.86981374
-1.6633117 4.225656 0.86704403
-1.6573498 4.2238135 0.86389536
-1.6511424 4.22226 0.86048138
-1.6443257 4.2214704 0.85639119
-1.6370811 4.2211952 0.85183454
-1.6293509 4.2215095 0.84674823
-1.6209886 4.2225909 0.84096873
-1.611712 4.2247915 0.83418608
-1.6014462 4.2281933 0.82632196
-1.5897743 4.2333136 0.81691492
-1.575303 4.2418904 0.80442333
-1.5534762 4.2596207 0.78380346
-1.7185184 4.3740673 0.8553586
-1.7224177 4.3584948 0.86362123
-1.7237837 4.3465691 0.86891049
-1.7238877 4.3364644 0.87271816
-1.7232387 4.3274484 0.8756389
-1.722087 4.319159 0.8779695
-1.7204056 4.311626 0.87967968
-1.7183942 4.3045659 0.88100374
-1.7161759 4.2978039 0.88208586
-1.7135787 4.2915711 0.8827284
-1.7108079 4.2855825 0.88316888
-1.7078315 4.2798781 0.8833729
-1.7045921 4.2745333 0.88327545
-1.7012616 4.269311 0.88307494
-1.6975992 4.2645373 0.88249481
-1.6938679 4.25985 0.88183838
-1.6898513 4.2555404 0.88085967
-1.685708 4.2513919 0.8797394
-1.6813359 4.2475386 0.87836409
-1.6767551 4.2439499 0.87675756
-1.6720033 4.2405767 0.87496012
-1.6669312 4.237608 0.87280875
-1.6617396 4.2347789 0.87052983
-1.6561028 4.232512 0.86775702
-1.6502525 4.2305002 0.86475182
-1.6440599 4.2289095 0.86137241
-1.6373389 4.2279735 0.85741162
-1.6302396 4.2274904 0.85304159
-1.6226549 4.2275977 0.84814095
-1.6142782 4.2286763 0.84237462
-1.6051841 4.2306218 0.83582646
-1.5951327 4.2337294 0.82823503
-1.5837523 4.2384572 0.81919295
-1.5702482 4.245791 0.80782497
-1.5513293 4.2598357 0.79050207
-1.7070165 4.3874035 0.85100973
-1.712992 4.3688664 0.86166382
-1.71487 4.3561978 0.86753583
-1.7153085 4.3455997 0.87172502
-1.7149018 4.3362231 0.87492394
-1.713828 4.3278027 0.87734443
-1.7122546 4.3200994 0.87918067
-1.7103894 4.3128161 0.88067561
-1.7082163 4.3059692 0.8818137
-1.7056922 4.2996154 0.88254571
-1.7030245 4.2934637 0.8831113
-1.700043 4.287745 0.88331723
-1.6968974 4.2822514 0.88333368
-1.6935593 4.2770205 0.88313246
-1.6899825 4.2721095 0.88265884
-1.6862978 4.2673383 0.88206631
-1.6823057 4.2629747 0.88112646
-1.6782465 4.2586951 0.88011199
-1.6738605 4.2548389 0.87873334
-1.6693641 4.2511177 0.87723458
-1.6645962 4.2477436 0.87543499
-1.6596143 4.2446356 0.87339944
-1.6544235 4.2417841 0.87113601
-1.6488658 4.2393937 0.86846828
-1.643129 4.2372146 0.86560971
-1.6369153 4.2356296 0.86222577
-1.6303283 4.234498 0.85843635
-1.6233765 4.2338071 0.85425174
-1.6157635 4.2339263 0.84934592
-1.6075476 4.2347789 0.84378481
-1.598634 4.2364736 0.83746666
-1.5888022 4.2392812 0.83015263
-1.5777019 4.2436323 0.82145905
-1.564712 4.2502928 0.8107065
-1.5475215 4.2621412 0.79535747
-1.6936903 4.403307 0.84461921
-1.7030607 4.3799343 0.85917431
-1.7059063 4.3658781 0.866153
-1.706687 4.3547792 0.87072861
-1.7064028 4.3452086 0.87406719
-1.7054569 4.3365903 0.87663186
-1.7040658 4.3286109 0.87867999
-1.7023464 4.321105 0.88034582
-1.700173 4.3142376 0.88148701
-1.6977696 4.3076954 0.88236201
-1.6951678 4.3014345 0.88300794
-1.6922214 4.2956471 0.88325959
-1.6891695 4.2900047 0.88339192
-1.6858245 4.2847624 0.8831895
-1.6823342 4.2797132 0.8828246
-1.6786405 4.2749343 0.88223034
-1.674732 4.2704391 0.88139492
-1.6706882 4.2661142 0.88041192
-1.6663549 4.2621689 0.87910336
-1.6619439 4.2583137 0.87771398
-1.6571608 4.25494 0.87590963
-1.6522685 4.2516932 0.87398964
-1.6470612 4.2488432 0.87172383
-1.6416013 4.2463026 0.86918271
-1.6359124 4.2440395 0.86639392
-1.6297451 4.2423735 0.86308128
-1.6232953 4.2410436 0.8594656
-1.6163807 4.240284 0.85534346
-1.6088513 4.2402778 0.85055417
-1.6007929 4.2409053 0.84519494
-1.5920628 4.2423439 0.83910996
-1.5824554 4.2448459 0.83207649
-1.5716388 4.248817 0.82373279
-1.5590227 4.2549844 0.81343645
-1.5433928 4.2648487 0.79986298
-1.6926789 4.3916197 0.8562237
-1.6964343 4.3762579 0.86423367
-1.6977117 4.3644404 0.86937255
-1.6977489 4.3543983 0.87307578
-1.6970432 4.3454213 0.87591594
-1.6958388 4.3371625 0.87817764
-1.6941662 4.3295689 0.87989831
-1.6920924 4.3225427 0.88115776
-1.6898124 4.3158112 0.88217759
-1.6872077 4.3095322 0.88282472
-1.6843671 4.3035817 0.88320369
-1.6813735 4.2978377 0.88340867
-1.678057 4.2925367 0.88324773
-1.6746538 4.2873483 0.88298935
-1.6709502 4.2825618 0.88239467
-1.6671246 4.2779336 0.88166362
-1.6630709 4.2736034 0.88067824
-1.6588197 4.2695284 0.87947476
-1.6544018 4.2656612 0.87809038
-1.6496954 4.2621632 0.87638617
-1.64489 4.2587824 0.87457728
-1.639671 4.2559266 0.87231356
-1.6343111 4.2532353 0.86989927
-1.6286036 4.250977 0.86710668
-1.6225497 4.2491422 0.86393964
-1.6162385 4.2476125 0.86049658
-1.6092972 4.2468648 0.85636848
-1.6019124 4.2466521 0.85176271
-1.5940151 4.2470531 0.84660679
-1.5854735 4.2482309 0.84075892
-1.5759892 4.2505555 0.83389068
-1.5654515 4.2541523 0.82589072
-1.5533228 4.2596855 0.81617069
-1.5383126 4.2687483 0.80333018
-1.5128599 4.2907495 0.77912861
-1.6814586 4.4044666 0.85237378
-1.6868811 4.3867369 0.86227411
-1.688675 4.3741708 0.86799496
-1.6890502 4.3636332 0.87207985
-1.6885897 4.3542953 0.87519789
-1.6875368 4.3458037 0.8776322
-1.6859015 4.3381376 0.87939739
-1.6839767 4.3308864 0.88082796
-1.6818037 4.3239861 0.88197345
-1.6792123 4.317668 0.88264203
-1.6764774 4.3115501 0.88314658
-1.6734793 4.3057952 0.88335228
-1.6702561 4.3003445 0.8833046
-1.666894 4.2950802 0.88310242
-1.6632289 4.2902212 0.8825599
-1.6594876 4.285459 0.88193303
-1.6554223 4.2811232 0.8809467
-1.6512543 4.2769151 0.87984788
-1.6468235 4.2730455 0.87846041
-1.6422031 4.2694149 0.87686533
-1.6373814 4.2660332 0.87505287
-1.6322525 4.2630386 0.87290382
-1.626995 4.2601933 0.87061918
-1.6212676 4.2579398 0.86782181
-1.6153282 4.2559357 0.86479968
-1.6090289 4.2543697 0.86138952
-1.6021892 4.2534709 0.85739487
-1.5949508 4.2530475 0.85297453
-1.5872183 4.2532172 0.84802556
-1.5786611 4.2543955 0.84218651
-1.5693463 4.2564812 0.83553779
-1.559027 4.2597804 0.82781094
-1.547314 4.2647672 0.81858677
-1.5331702 4.2727218 0.80674303
-1.5126143 4.2885799 0.78796101
-1.6690375 4.4189849 0.84721887
-1.6770694 4.3975573 0.86007428
-1.6795882 4.383954 0.86660957
-1.6803101 4.3729124 0.87108225
-1.6800629 4.3632569 0.87443864
-1.6790495 4.3546886 0.87691844
-1.6776003 4.346745 0.87889457
-1.675824 4.3392653 0.88049769
-1.6736498 4.332346 0.88164514
-1.6711811 4.3258395 0.8824569
-1.6685535 4.3195553 0.88308924
-1.6655501 4.313786 0.88329542
-1.6624225 4.3081846 0.88336307
-1.6590525 4.3029108 0.88315952
-1.655475 4.2979121 0.8827247
-1.6517502 4.2931066 0.88212645
-1.647743 4.2886734 0.88121539
-1.6436592 4.2843328 0.88022196
-1.6392146 4.2804604 0.8788321
-1.6346805 4.2766943 0.87734592
-1.6298438 4.2733126 0.87552965
-1.6248045 4.2701778 0.873496
-1.6195352 4.2673287 0.87121344
-1.613902 4.2649302 0.86853766
-1.6080784 4.2627559 0.86566097
-1.6017573 4.261198 0.86224669
-1.5950555 4.2600999 0.85842466
-1.5879666 4.2594652 0.85418999
-1.5802096 4.2596445 0.84923816
-1.5718112 4.2605991 0.84360075
-1.5626792 4.2624326 0.83718181
-1.5525862 4.2654233 0.82973671
-1.5411592 4.2700281 0.82086384
-1.5277296 4.2770662 0.80984414
-1.509522 4.2899675 0.7936821
-1.6665468 4.4093595 0.85712129
-1.670143 4.3942227 0.86486763
-1.6713241 4.3825188 0.86985248
-1.6712879 4.3725462 0.87344438
-1.6705214 4.3636155 0.87620187
-1.6692597 4.355392 0.87839133
-1.6675957 4.3477364 0.88012218
-1.6654589 4.340745 0.88131559
-1.6631157 4.3340459 0.88227278
-1.6604993 4.3277235 0.88292372
-1.6575861 4.3218112 0.88323879
-1.6545551 4.3160586 0.88342088
-1.6511774 4.3107738 0.88321751
-1.6476892 4.3056359 0.8828907
-1.6439551 4.3008208 0.88229221
-1.6400316 4.2962546 0.88148463
-1.6359382 4.2919059 0.88049257
-1.6315746 4.2879047 0.87920398
-1.627111 4.2840247 0.87780887
-1.6222744 4.280622 0.87600642
-1.617329 4.2773457 0.87409025
-1.612042 4.274497 0.87180418
-1.6065092 4.2719474 0.86925519
-1.6007272 4.2696991 0.86644113
-1.5944611 4.2680488 0.86310631
-1.5878985 4.2667508 0.85945708
-1.580857 4.2660336 0.85529798
-1.5731738 4.266099 0.85045123
-1.564935 4.2668281 0.84501547
-1.5559932 4.2684002 0.8388325
-1.5461285 4.2710824 0.83166724
-1.5053335 4.2927237 0.79821408
-1.6556448 4.4216704 0.85380191
-1.6604593 4.404809 0.86290616
-1.6621612 4.3923554 0.86847043
-1.662469 4.3818841 0.87244558
-1.6619501 4.3725886 0.87548
-1.6608787 4.3640795 0.87788451
-1.6592188 4.3564 0.87962037
-1.6572305 4.3491821 0.88098419
-1.655012 4.3422899 0.88208723
-1.6523943 4.3359499 0.88274056
-1.6495892 4.3298697 0.88318264
-1.6465732 4.3240767 0.88338882
-1.6432692 4.3186703 0.88327533
-1.6398708 4.3133903 0.88305742
-1.6361266 4.3085685 0.88245702
-1.6322879 4.3038678 0.88175499
-1.6281842 4.2995124 0.88076103
-1.6239043 4.2953801 0.8795771
-1.6194276 4.2914968 0.87817937
-1.614677 4.2879586 0.87648606
-1.6098007 4.2845712 0.87466049
-1.6045195 4.2816939 0.87239516
-1.5990897 4.2789907 0.86997533
-1.5932877 4.2767458 0.86715728
-1.5871385 4.2749243 0.86396873
-1.5807152 4.2734261 0.86049205
-1.573647 4.2727232 0.85632515
-1.5661112 4.2725792 0.85166311
-1.5580389 4.2730737 0.84643424
-1.5492878 4.2743845 0.84048676
-1.5396038 4.2768173 0.83354986
-1.528772 4.2806325 0.82539612
-1.5161419 4.2866235 0.8153308
-1.50053 4.2962427 0.80208868
-1.6434177 4.4358158 0.84905297
-1.650714 4.415462 0.86093086
-1.6529498 4.4022446 0.86708337
-1.6536064 4.3912663 0.87144518
-1.6533393 4.3816013 0.87475866
-1.6523138 4.3730087 0.87721342
-1.6508002 4.3651047 0.87911594
-1.6489654 4.357657 0.88065398
-1.6467894 4.3506842 0.88180852
-1.6442524 4.3442149 0.88255596
-1.6415559 4.3379655 0.88312459
-1.6385344 4.3321567 0.88333315
-1.6353269 4.326601 0.88333428
-1.6319339 4.3212938 0.8831293
-1.628266 4.3163486 0.88262326
-1.6245097 4.3115163 0.88202161
-1.6203979 4.3071513 0.88103098
-1.6162031 4.3028846 0.87995118
-1.6117132 4.2989984 0.87855154
-1.6070498 4.2953253 0.87696791
-1.6021583 4.2919354 0.87513804
-1.5969697 4.2889175 0.87299067
-1.5916351 4.2860694 0.87069029
-1.5858191 4.2838216 0.86787432
-1.5797856 4.2818294 0.86483002
-1.5733782 4.2802901 0.86139053
-1.5664114 4.2794356 0.85735536
-1.5590255 4.2790785 0.85287976
-1.5511211 4.2793412 0.84785736
-1.5423899 4.2806039 0.84196013
-1.5328376 4.2828503 0.83519578
-1.5222324 4.2863579 0.82732242
-1.5101614 4.2916279 0.81789917
-1.49529 4.300303 0.8055051
-1.4728432 4.3182588 0.78504652
-1.6279898 4.4544106 0.8407867
-1.6401203 4.4272804 0.85805798
-1.6435438 4.4123855 0.8655293
-1.6446178 4.4008088 0.87034988
-1.6445012 4.390914 0.87382758
-1.643667 4.3820348 0.87649614
-1.6423447 4.3738475 0.87861145
-1.6406614 4.3661718 0.88032019
-1.6384851 4.3591785 0.88147759
-1.6360737 4.3525157 0.88237041
-1.6334502 4.3461456 0.88302678
-1.63046 4.3402753 0.88327509
-1.6273509 4.3345642 0.88339329
-1.6239492 4.3292475 0.88318735
-1.6203707 4.3241625 0.88278949
-1.6166047 4.3193226 0.88218641
-1.6125802 4.3148208 0.88130069
-1.6084478 4.3104501 0.88030243
-1.6039673 4.3065305 0.87892467
-1.5993915 4.302721 0.87744951
-1.5944846 4.2993317 0.87561673
-1.5893871 4.2961731 0.87358403
-1.5840347 4.2933254 0.87128079
-1.5783218 4.2909241 0.86859232
-1.5724069 4.2887583 0.86569536
-1.5659764 4.2872281 0.86224991
-1.5591506 4.2861719 0.85838825
-1.5519172 4.2856002 0.85409975
-1.5440105 4.2858448 0.84910023
-1.5354134 4.2869158 0.84337515
-1.5260507 4.2889028 0.83684582
-1.5156754 4.292098 0.82925367
-1.5038931 4.2969866 0.82017964
-1.4899825 4.3044419 0.80886292
-1.4706064 4.3185692 0.79175609
-1.6293845 4.4392738 0.85508764
-1.6337248 4.4230843 0.86356449
-1.6353251 4.4107556 0.86896306
-1.6355599 4.4003539 0.87282789
-1.6349783 4.3911057 0.87577432
-1.6338478 4.3826332 0.8781051
-1.6321982 4.3748894 0.8798517
-1.6301429 4.3677111 0.88114667
-1.6278585 4.3608532 0.88218486
-1.6252321 4.3544664 0.88284194
-1.6223509 4.3484278 0.88321805
-1.6193187 4.3425932 0.88342631
-1.6159313 4.3372355 0.88324565
-1.6124442 4.3320084 0.88295573
-1.6086679 4.3271599 0.88235098
-1.6047286 4.3225222 0.88157129
-1.600585 4.3181467 0.88057089
-1.5961891 4.3140941 0.87929881
-1.591664 4.3101964 0.877891
-1.5867794 4.3067575 0.87609667
-1.5817764 4.3034544 0.87417978
-1.5764062 4.3006101 0.8718732
-1.5707963 4.2980547 0.86931372
-1.5649184 4.2958198 0.86647391
-1.5585493 4.2941904 0.86311311
-1.5518652 4.2929311 0.85942549
-1.5446924 4.2922611 0.85522395
-1.5368429 4.2924104 0.85031188
-1.5284144 4.2932496 0.84479368
-1.5192436 4.294971 0.8385008
-1.5091025 4.2978535 0.83119136
-1.4976006 4.3023696 0.82245535
-1.4840902 4.3093061 0.81161082
-1.4663322 4.3214025 0.79629236
-1.6171788 4.4532933 0.85054463
-1.6238496 4.4338441 0.86159116
-1.6259879 4.4207478 0.86757725
-1.6265748 4.4098382 0.87182605
-1.6262454 4.4002228 0.87504995
-1.6252432 4.3915539 0.87752086
-1.6236626 4.3836918 0.87934661
-1.6217622 4.3762822 0.88081455
-1.6195867 4.3692551 0.88197672
-1.6169765 4.3628254 0.88265693
-1.6142068 4.3566151 0.88316101
-1.6111684 4.3507676 0.8833707
-1.6078781 4.3452592 0.88330418
-1.6044594 4.3399172 0.88309723
-1.6006968 4.3350315 0.88251752
-1.5968443 4.3302565 0.8818422
-1.5926895 4.3258748 0.88084036
-1.5883799 4.3216867 0.87967336
-1.5838418 4.3177867 0.87826395
-1.5790445 4.3142114 0.87657827
-1.5740974 4.3108168 0.87473553
-1.5687482 4.3079219 0.87246776
-1.5632436 4.3052106 0.87003726
-1.5573441 4.3029809 0.86719245
-1.5510921 4.3011794 0.86397725
-1.5445496 4.2997193 0.860461
-1.5373501 4.2990627 0.85625327
-1.529654 4.2989969 0.85152805
-1.5213937 4.2996011 0.84621626
-1.5124173 4.3010573 0.84015989
-1.5025007 4.3036385 0.83312237
-1.491294 4.3077636 0.8247382
-1.4781847 4.3141785 0.81436539
-1.4618863 4.3244472 0.80065084
-1.602869 4.4702082 0.84374571
-1.6133996 4.4453807 0.85903621
-1.6165982 4.4307966 0.86618191
-1.6175441 4.4193711 0.87082016
-1.6173836 4.4095016 0.87422639
-1.6164759 4.4006801 0.87680143
-1.6150885 4.3925347 0.87884074
-1.6133429 4.384892 0.880481
-1.611167 4.3778443 0.8816458
-1.6086843 4.3712211 0.8824721
-1.6060255 4.3648391 0.88310343
-1.6029823 4.3589773 0.88331366
-1.599791 4.3533149 0.88336223
-1.596364 4.3479638 0.883156
-1.5926925 4.3429346 0.88268375
-1.5888938 4.338069 0.88207716
-1.5847622 4.3336353 0.8811115
-1.5805392 4.3293123 0.88004935
-1.5759871 4.3254085 0.87863779
-1.5712781 4.3216972 0.87706059
-1.5663141 4.3183022 0.87521452
-1.56106 4.3152637 0.87306285
-1.5556433 4.3124185 0.87074214
-1.5497396 4.310173 0.86791027
-1.5436062 4.308197 0.86484092
-1.5370853 4.3066893 0.86136734
-1.5299833 4.3058863 0.85728639
-1.52244 4.3056054 0.85274786
-1.5143498 4.3059745 0.84764272
-1.5054331 4.3073349 0.84167808
-1.4956259 4.3097563 0.83478814
-1.4847122 4.3134942 0.82675076
-1.4722416 4.3190942 0.81709659
-1.4565506 4.3285894 0.80407733
-1.430117 4.3511901 0.77980053
-1.6025259 4.4574833 0.85607517
-1.6066778 4.4415593 0.86425412
-1.6081676 4.4293618 0.86948222
-1.6083192 4.4190421 0.87322688
-1.6076671 4.4098501 0.87608063
-1.6064739 4.4014177 0.87833297
-1.6048338 4.3936114 0.88009101
-1.6027088 4.3864741 0.88131535
-1.600355 4.379653 0.88228637
-1.5977184 4.3732209 0.8829475
-1.594759 4.3672247 0.88325614
-1.5916681 4.3614063 0.88342053
-1.5882331 4.3560452 0.8832131
-1.5846534 4.3508725 0.88285124
-1.5808454 4.3459983 0.88224292
-1.5767995 4.3414297 0.88138121
-1.5726168 4.3370323 0.88037437
-1.5680994 4.3330631 0.8790105
-1.5634803 4.3292131 0.87754339
-1.5584996 4.3258171 0.8756935
-1.553341 4.3226361 0.87365812
-1.5479048 4.3197923 0.87133461
-1.5421052 4.3173933 0.86862946
-1.5360932 4.3152418 0.86570793
-1.5295484 4.3137417 0.86222935
-1.52259 4.3127356 0.8583222
-1.5152004 4.3122396 0.85397005
-1.5071332 4.3125572 0.84891492
-1.4983258 4.3137574 0.84309453
-1.4887134 4.3159137 0.83644152
-1.4780338 4.3193383 0.82868582
-1.465847 4.3245654 0.81937063
-1.4512075 4.332736 0.80750906
-1.4296468 4.3493166 0.78843176
-1.590688 4.4708962 0.85211736
-1.5966707 4.4524245 0.86228389
-1.5987012 4.4394622 0.86809528
-1.5992081 4.4286323 0.87222368
-1.5988134 4.4190674 0.8753553
-1.5978183 4.4103446 0.87782431
-1.596181 4.402513 0.87958586
-1.5942107 4.3951416 0.88098282
-1.5919881 4.388124 0.88209993
-1.5893486 4.3816738 0.88276392
-1.5864999 4.3755078 0.88319862
-1.5834455 4.3696203 0.8834095
-1.580067 4.364162 0.88327193
-1.5765806 4.3588443 0.88301921
-1.5727619 4.3539624 0.88240826
-1.5688058 4.3492551 0.88165337
-1.5646104 4.3448524 0.88064367
-1.5601796 4.3407488 0.87938583
-1.5555929 4.3368335 0.87796587
-1.5506542 4.3333626 0.87617534
-1.5455914 4.3300366 0.87425607
-1.5401366 4.3271952 0.87192827
-1.5344427 4.3246393 0.869353
-1.5284668 4.3224206 0.86648703
-1.5219845 4.3208208 0.86309278
-1.5151685 4.3196111 0.85935795
-1.5078588 4.3189926 0.8551138
-1.4998345 4.3192353 0.85012805
-1.4911979 4.3201995 0.84451574
-1.4817812 4.3220892 0.83810008
-1.4713233 4.3252158 0.8306126
-1.4594343 4.3300495 0.82164824
-1.4454037 4.3374476 0.81047291
-1.4263049 4.3509755 0.79404181
-1.5774996 4.4861512 0.84675401
-1.58639 4.4636483 0.86007077
-1.5891843 4.4496145 0.86670208
-1.5900533 4.4382672 0.87121969
-1.589918 4.4283261 0.8746292
-1.5889435 4.4195533 0.8771199
-1.5874863 4.4114552 0.87908006
-1.5856743 4.403851 0.88064909
-1.583498 4.3967485 0.88182145
-1.5809404 4.3901668 0.88257766
-1.578205 4.3838277 0.8831411
-1.5751438 4.3779254 0.88335198
-1.5718659 4.3723135 0.88332975
-1.5684146 4.3669286 0.88312256
-1.5646451 4.361959 0.88257527
-1.5607777 4.3571134 0.8819257
-1.5565698 4.3527055 0.88091457
-1.5522267 4.3484645 0.87976205
-1.5476261 4.3445477 0.87833929
-1.5427775 4.3409381 0.87665814
-1.537757 4.3375363 0.87479895
-1.5323373 4.3346281 0.87252355
-1.5267496 4.3319154 0.87007612
-1.5207509 4.3297038 0.86720413
-1.5143884 4.32793 0.8639558
-1.5077181 4.3265157 0.86039519
-1.5003815 4.3259087 0.85614407
-1.4925112 4.3259344 0.85134667
-1.4840461 4.326663 0.84594005
-1.4748169 4.3282967 0.83975035
-1.4645957 4.3311086 0.83254367
-1.4530079 4.335547 0.82393301
-1.4393644 4.3424449 0.81320792
-1.4219518 4.3538766 0.79859698
-1.5753788 4.4758573 0.85711926
-1.579321 4.4602256 0.8649838
-1.5806835 4.4481816 0.87002766
-1.5807422 4.4379539 0.87364554
-1.580014 4.4288244 0.87640077
-1.5787517 4.4204383 0.87857234
-1.577098 4.4125991 0.88031435
-1.5749216 4.4054761 0.88148987
-1.5724943 4.3986959 0.88239169
-1.5698487 4.3922167 0.88305688
-1.5668062 4.3862672 0.88329589
-1.563629 4.3804989 0.88338882
-1.5601685 4.3751049 0.88318068
-1.5564922 4.3699913 0.88274205
-1.5526513 4.3650894 0.88212991
-1.5484955 4.3605928 0.88118452
-1.5442415 4.3562155 0.88013858
-1.5396267 4.3522944 0.87871343
-1.5348684 4.3485475 0.87713999
-1.5298302 4.3451438 0.87527746
-1.5245054 4.3420925 0.87311816
-1.5190023 4.339251 0.8707763
-1.5130051 4.3370156 0.8679229
-1.5067637 4.3350649 0.86482209
-1.5001258 4.3335881 0.86131418
-1.4928782 4.3328476 0.85717893
-1.4851606 4.3326612 0.85256553
-1.4768622 4.3331594 0.84735936
-1.4677566 4.3346171 0.84132701
-1.4576739 4.337235 0.83429688
-1.4464149 4.3412433 0.82606763
-1.4333135 4.3474512 0.81594944
-1.4168531 4.3576899 0.80238408
-1.5639635 4.4885983 0.85379457
-1.5691811 4.4711976 0.86301881
-1.5710874 4.4583874 0.8686412
-1.571505 4.4476485 0.87264109
-1.5710378 4.4381433 0.87567568
-1.569976 4.4294643 0.87806344
-1.5683491 4.4215655 0.87983692
-1.5663058 4.4142423 0.88115853
-1.5640099 4.4072647 0.88220555
-1.5613607 4.4007678 0.88287306
-1.5584308 4.3946476 0.88323867
-1.5553559 4.3887215 0.88344836
-1.551888 4.3833156 0.88323951
-1.5483052 4.3780575 0.88290954
-1.5444539 4.373147 0.88229644
-1.5403863 4.3685131 0.8814562
-1.5361503 4.36409 0.88043934
-1.531592 4.360075 0.87908733
-1.5269254 4.3561873 0.87762356
-1.5218714 4.3527846 0.87575722
-1.5166441 4.349587 0.8737154
-1.5111214 4.3467479 0.87136877
-1.5052309 4.3443546 0.86864454
-1.4991124 4.342227 0.86569083
-1.492449 4.3407607 0.86217719
-1.4853433 4.3398204 0.8582114
-1.4777801 4.3394165 0.85378176
-1.4695507 4.3398075 0.84867328
-1.4605154 4.3411541 0.84274417
-1.4506272 4.3435073 0.83594793
-1.439593 4.3472171 0.8279863
-1.4269714 4.3528094 0.81840938
-1.4113743 4.3619652 0.80579036
-1.3870695 4.3816423 0.78423828
-1.5512073 4.5031581 0.84908789
-1.5589796 4.4822359 0.86104268
-1.5614413 4.4686456 0.86725205
-1.5622247 4.457386 0.87163907
-1.5620193 4.447504 0.87495232
-1.5610684 4.438653 0.87745726
-1.5595325 4.4306111 0.87932849
-1.5576483 4.4230499 0.8808248
-1.5554732 4.4158912 0.88200456
-1.5528347 4.4093571 0.88268739
-1.5500185 4.4030643 0.88318068
-1.5469396 4.3971224 0.88339275
-1.5435711 4.3915625 0.88329804
-1.540082 4.3861594 0.88307679
-1.5362203 4.3812413 0.88246179
-1.5322435 4.3764663 0.88172811
-1.5279946 4.3720379 0.88070977
-1.5235263 4.3678856 0.87946337
-1.5188762 4.363955 0.87802964
-1.5138808 4.3604541 0.87623954
-1.5087509 4.3571095 0.87431431
-1.5032084 4.3542738 0.87196362
-1.4974239 4.3517246 0.86936647
-1.4913441 4.3495255 0.8664704
-1.4847383 4.3479643 0.86303568
-1.4777789 4.3468184 0.85924387
-1.4703294 4.346251 0.85495698
-1.4621135 4.346602 0.84988689
-1.4532477 4.3477178 0.84416109
-1.4435474 4.3498163 0.83759105
-1.4327507 4.3532081 0.8299107
-1.4204302 4.3584089 0.82068372
-1.4057736 4.3663883 0.80908364
-1.3848726 4.3818836 0.79111046
-1.5353458 4.521946 0.84112042
-1.5479496 4.4943867 0.85823399
-1.5516526 4.4790812 0.86575931
-1.5528721 4.4672084 0.87060535
-1.5528276 4.4570847 0.87408781
-1.5520151 4.4480267 0.87673837
-1.5506779 4.4396935 0.87882388
-1.5489535 4.4318967 0.88049203
-1.5467763 4.4247169 0.88167393
-1.5442691 4.4179873 0.88250142
-1.5415691 4.4115186 0.8831225
-1.538484 4.4055629 0.88333648
-1.5352172 4.399847 0.88335615
-1.5317316 4.3944168 0.88314754
-1.5279528 4.3893685 0.88262886
-1.5240678 4.3844533 0.88200098
-1.5198056 4.3800197 0.88098073
-1.5154259 4.3757291 0.87983942
-1.5107603 4.3717971 0.87840331
-1.505856 4.3681579 0.8767212
-1.5007588 4.3647499 0.87484407
-1.4952611 4.3618345 0.87255538
-1.4895841 4.3591275 0.87008715
-1.4834819 4.3569341 0.86718661
-1.4769998 4.355197 0.86389869
-1.4701878 4.3538418 0.86028135
-1.4627111 4.3532872 0.85598713
-1.4546477 4.3534265 0.85110056
-1.4459474 4.3543124 0.84557331
-1.4364461 4.3561425 0.83923823
-1.4258906 4.3592162 0.83184063
-1.4138509 4.3640466 0.82294208
-1.3996091 4.3714948 0.81181514
-1.3805578 4.3847075 0.79580551
-1.536726 4.5067806 0.85527897
-1.5413815 4.4901562 0.86380345
-1.5431471 4.4775186 0.86922342
-1.5434641 4.4668837 0.8730858
-1.5429136 4.4574475 0.87601572
-1.5417792 4.4488206 0.87831664
-1.5401626 4.4408574 0.88009995
-1.5380398 4.4335842 0.88134211
-1.5356655 4.4266534 0.8823157
-1.5330082 4.4201069 0.88298756
-1.5299914 4.4140391 0.88327968
-1.526827 4.4081664 0.88341528
-1.5233325 4.4027262 0.88320541
-1.5196477 4.3975325 0.88279516
-1.5157624 4.3925953 0.88217777
-1.51158 4.3880382 0.88125026
-1.507291 4.3836079 0.88021529
-1.5026102 4.379673 0.87877578
-1.4977978 4.3758945 0.87720382
-1.4926842 4.3724852 0.87532264
-1.4872838 4.3694243 0.87315142
-1.4816906 4.3665891 0.87078571
-1.4755923 4.3643699 0.86790586
-1.4692318 4.3624539 0.86476552
-1.4624716 4.3610134 0.8612197
-1.4550579 4.3603573 0.85701412
-1.4471487 4.3602824 0.85231036
-1.4386231 4.3609295 0.84698999
-1.4293224 4.3624897 0.84088999
-1.4189217 4.3653493 0.83368373
-1.4072556 4.369699 0.82520586
-1.3934233 4.3766232 0.81454444
-1.3760216 4.3878012 0.80028009
-1.5241284 4.5210261 0.85092556
-1.5310477 4.5012984 0.86183614
-1.5333732 4.4878788 0.86784101
-1.5340585 4.4767237 0.8720876
-1.5337716 4.4669104 0.87529355
-1.5328385 4.4579916 0.87780732
-1.5312247 4.4500027 0.87959462
-1.5292618 4.442493 0.8810094
-1.5270221 4.4353619 0.88212955
-1.5243617 4.4287972 0.88280261
-1.5214595 4.4225545 0.88322246
-1.5183628 4.4165707 0.88343549
-1.5148965 4.4110732 0.88326263
-1.5113081 4.4057322 0.88296199
-1.5074118 4.4007859 0.88234317
-1.5033199 4.3960881 0.88152194
-1.499029 4.3916397 0.88049603
-1.4944271 4.3875809 0.87915117
-1.4897071 4.3836608 0.87768692
-1.4845761 4.3802524 0.87580383
-1.479275 4.3770432 0.87374872
-1.4736607 4.3742113 0.87137818
-1.4676673 4.3718371 0.86862445
-1.4614296 4.3697472 0.86562711
-1.4546421 4.3683176 0.86207533
-1.4473754 4.3674564 0.85804206
-1.4396244 4.3671618 0.85352427
-1.4312255 4.36763 0.84835953
-1.4219282 4.3691616 0.84229261
-1.4117193 4.3717618 0.8353157
-1.4003054 4.3757806 0.82713151
-1.3871622 4.3818383 0.81721592
-1.3704219 4.3921871 0.8036797
-1.5096619 4.5377903 0.8446635
-1.5202509 4.5130496 0.85943478
-1.5235455 4.4982967 0.86645001
-1.5246022 4.4866161 0.87108415
-1.5245719 4.4764361 0.87455726
-1.523665 4.4674597 0.87709588
-1.5222456 4.459187 0.8790912
-1.5204436 4.4514408 0.88067782
-1.5182689 4.4442029 0.88186735
-1.5156745 4.4375262 0.88261735
-1.5128889 4.431109 0.88316405
-1.509786 4.4251118 0.88337851
-1.5064247 4.4194546 0.88332218
-1.5029126 4.4139905 0.8831107
-1.4990245 4.4090114 0.88250995
-1.4950243 4.4041739 0.88179338
-1.4907205 4.3997197 0.88076556
-1.4862089 4.3955226 0.87952608
-1.4814922 4.3915768 0.87807918
-1.4764324 4.3880548 0.87628239
-1.4712279 4.3847008 0.87434214
-1.4655938 4.3818722 0.87196761
-1.4597086 4.3793406 0.8693409
-1.4535241 4.3771605 0.86641717
-1.4467843 4.3756499 0.86293262
-1.4396659 4.3745799 0.8590734
-1.43207 4.3740706 0.85473764
-1.423633 4.3745632 0.84955961
-1.4145056 4.3758616 0.84369504
-1.404497 4.3781943 0.83695197
-1.3933078 4.3819127 0.82903349
-1.3804578 4.387589 0.81945735
-1.3647691 4.3966327 0.80704045
-1.3401203 4.41642 0.78562045
-1.5088975 4.525538 0.85650432
-1.5132787 4.5092897 0.86464936
-1.5148816 4.496851 0.86984926
-1.5150815 4.4863377 0.87356031
-1.5144392 4.4769821 0.87637699
-1.5132241 4.4684157 0.87858546
-1.5115854 4.4604301 0.88034487
-1.5094082 4.4531713 0.88153702
-1.5069495 4.4462943 0.88243288
-1.5042815 4.4397001 0.8831076
-1.5011724 4.4336886 0.88332248
-1.4979132 4.427875 0.88337988
-1.4943929 4.4223995 0.8831681
-1.4906 4.417275 0.88267535
-1.4866807 4.4123096 0.8820532
-1.4823747 4.4078369 0.88103414
-1.4779533 4.4035015 0.87989974
-1.4732225 4.3995523 0.87844956
-1.4682544 4.3958902 0.87676221
-1.4630802 4.3924761 0.87486696
-1.4574959 4.3895612 0.87255943
-1.4517195 4.3868694 0.87006187
-1.4455127 4.3846965 0.86713195
-1.4388963 4.383008 0.86379373
-1.4319223 4.3817372 0.86010134
-1.4242926 4.381248 0.85575491
-1.416012 4.3815231 0.85076058
-1.4070586 4.3825846 0.84510106
-1.3972422 4.3846569 0.83858466
-1.3862787 4.3880758 0.83092958
-1.3737351 4.3933549 0.82170403
-1.3587422 4.4015288 0.81004035
-1.3375553 4.4170952 0.79218423
-1.4968628 4.5389247 0.85292345
-1.5028151 4.5205297 0.86269683
-1.5049797 4.5073109 0.8684743
-1.5055511 4.4962769 0.87256902
-1.5051732 4.4865465 0.87566006
-1.5041602 4.4776878 0.87807876
-1.5025562 4.4696317 0.87987632
-1.5005072 4.4621825 0.88120574
-1.4981854 4.455102 0.88224721
-1.4955132 4.4484887 0.88292474
-1.4925195 4.4423046 0.88326526
-1.4893649 4.4363308 0.88343847
-1.4858359 4.4308457 0.88322628
-1.4821392 4.4255738 0.88284194
-1.4782084 4.4206014 0.88221765
-1.4739945 4.415987 0.88130444
-1.4696598 4.4115176 0.88027108
-1.4649174 4.4075618 0.87882185
-1.4600439 4.4037571 0.8772434
-1.4548515 4.4003439 0.87534481
-1.4493666 4.3972816 0.87315309
-1.4436792 4.3944554 0.87076259
-1.4374647 4.3922696 0.86784244
-1.4309692 4.390408 0.86464655
-1.4240793 4.3890085 0.86106116
-1.4164854 4.3884506 0.85677385
-1.4083637 4.3885083 0.85196567
-1.3995777 4.3893409 0.84650254
-1.3899512 4.3911572 0.84020782
-1.37923 4.3942571 0.83283138
-1.3669703 4.3991675 0.82392997
-1.3523843 4.4068227 0.81272346
-1.332904 4.4202976 0.79664975
-1.4837984 4.5536833 0.84833246
-1.4923013 4.5318217 0.86074698
-1.4950272 4.5178251 0.86709833
-1.4959683 4.5062718 0.87157184
-1.4958611 4.4961572 0.87494051
-1.4949659 4.4871182 0.8774817
-1.4934536 4.4789186 0.87937582
-1.4915673 4.4712305 0.88087684
-1.4893799 4.4639487 0.88206249
-1.4867064 4.4573183 0.88274103
-1.4838284 4.4509587 0.88320929
-1.4807073 4.4449186 0.88342416
-1.4772413 4.4393291 0.88328493
-1.4736412 4.4339094 0.88300878
-1.4697002 4.4289279 0.882384
-1.4655772 4.4241729 0.88157493
-1.4612294 4.4196997 0.88053876
-1.4565769 4.415606 0.8791939
-1.4517959 4.4116607 0.8777234
-1.446584 4.4082494 0.87581891
-1.4411969 4.4050426 0.87374228
-1.4354906 4.4022179 0.87134749
-1.4293828 4.3998742 0.86855465
-1.4230123 4.3978343 0.86550456
-1.4160976 4.3964434 0.86191374
-1.4086506 4.3956814 0.85779631
-1.4006766 4.3955326 0.85316217
-1.3920615 4.3961334 0.84789711
-1.3824996 4.3978486 0.84169698
-1.371932 4.4007359 0.83450866
-1.3600389 4.4051752 0.82601315
-1.3459948 4.412149 0.81539661
-1.3279916 4.4238129 0.80086052
-1.4655803 4.575377 0.83844733
-1.4808327 4.5443807 0.85785848
-1.4848845 4.5285764 0.86557513
-1.4862977 4.5163693 0.87053126
-1.486364 4.5059981 0.87407631
-1.4856147 4.4967432 0.8767665
-1.4843068 4.4882498 0.87887317
-1.4825833 4.4803224 0.88054532
-1.4804075 4.4730058 0.88174528
-1.4778569 4.466188 0.88255751
-1.4750966 4.4596519 0.88315135
-1.4719695 4.4535985 0.88336772
-1.4686077 4.4478507 0.88334304
-1.4650608 4.4423394 0.88312989
-1.461153 4.4372931 0.88254845
-1.4571226 4.4323983 0.88184404
-1.452762 4.427918 0.88080573
-1.448199 4.423686 0.87956572
-1.4434149 4.419723 0.87810451
-1.4382833 4.4161868 0.87629539
-1.4329956 4.4128323 0.8743341
-1.4272686 4.4100108 0.87193477
-1.4212703 4.4075074 0.86926991
-1.4149737 4.4053526 0.86631161
-1.4080781 4.4039168 0.86276013
-1.4007726 4.4029551 0.8588081
-1.3929584 4.4025879 0.85435754
-1.3843371 4.403172 0.84911269
-1.3749126 4.404695 0.8430804
-1.3645257 4.4073391 0.83610368
-1.3528718 4.4114633 0.82788616
-1.3393775 4.4177451 0.81786233
-1.3221295 4.4284711 0.80413711
-1.4693301 4.5569649 0.85499865
-1.474305 4.5398974 0.86365199
-1.4762692 4.5269279 0.86916888
-1.4767075 4.5160389 0.87309343
-1.4762231 4.5064077 0.87605602
-1.4751188 4.4976215 0.87837291
-1.4735271 4.4894986 0.88018137
-1.4713812 4.4821181 0.88141668
-1.468968 4.4750991 0.8823728
-1.4662882 4.4684348 0.88305509
-1.4631929 4.462317 0.88331145
-1.4599358 4.4564099 0.8834005
-1.4563808 4.4508877 0.88318783
