# .PCD v0.7 - Point Cloud Data file format
VERSION 0.7
FIELDS x y z
SIZE 4 4 4
TYPE F F F
COUNT 1 1 1
WIDTH 1515
HEIGHT 1
VIEWPOINT 0 0 0 1 0 0 0
POINTS 1515
DATA ascii
-1.7165823 3.2119846 0.8495574
-1.7325835 3.2009566 0.86790156
-1.7419819 3.1924787 0.87867689
-1.7476277 3.1854427 0.88515043
-1.7532063 3.1784606 0.8915453
-1.7565089 3.1723397 0.8953321
-1.7597433 3.1662607 0.89903975
-1.7628433 3.1602457 0.90259504
-1.7647871 3.1546617 0.90482283
-1.7667257 3.1490898 0.90704584
-1.7686616 3.1435287 0.90926433
-1.7701013 3.1381507 0.9109149
-1.7711459 3.1329188 0.91211271
-1.7721844 3.1276937 0.91330385
-1.7732217 3.1224737 0.91449285
-1.7738092 3.1174138 0.9151659
-1.7741416 3.1124427 0.91554785
-1.7744735 3.1074739 0.91592836
-1.7748066 3.1025057 0.9163096
-1.7747806 3.0976586 0.91628003
-1.774446 3.0929139 0.91589737
-1.7741125 3.0881667 0.91551423
-1.7737787 3.0834179 0.91513109
-1.7731181 3.0787718 0.91437459
-1.7720671 3.0742488 0.91316915
-1.7710149 3.0697198 0.91196227
-1.7699615 3.065187 0.91075468
-1.7683923 3.0608089 0.90895629
-1.7664328 3.0565448 0.90671015
-1.7644707 3.0522718 0.90445948
-1.7623745 3.0480299 0.90205693
-1.7590735 3.0441408 0.89827275
-1.75579 3.0402317 0.89450836
-1.7520306 3.0364468 0.89019728
-1.7463747 3.0332029 0.88371396
-1.740539 3.0299838 0.8770237
-1.730643 3.0279129 0.86567855
-1.7154768 3.0273089 0.84829068
-1.7124321 3.2123396 0.85231757
-1.7274077 3.2017035 0.86943173
-1.7363307 3.1934047 0.8796277
-1.7421068 3.1863177 0.88622904
-1.7473204 3.1794667 0.89218593
-1.7506367 3.1733367 0.89597654
-1.7539427 3.1672268 0.89975429
-1.7568371 3.1612806 0.90306163
-1.7587891 3.1556888 0.90529203
-1.7607378 3.1501067 0.90751863
-1.7626812 3.1445367 0.90973926
-1.7639391 3.1392167 0.9111774
-1.7649992 3.1339717 0.91238928
-1.7660582 3.1287327 0.91359901
-1.7671087 3.1235027 0.91479897
-1.7675163 3.1184967 0.91526508
-1.7678499 3.1135178 0.91564703
-1.7681851 3.1085398 0.9160285
-1.7685188 3.1035638 0.91641045
-1.7683153 3.0987678 0.91617823
-1.7679799 3.0940146 0.91579533
-1.7676433 3.0892599 0.915411
-1.7673082 3.0845027 0.91502786
-1.7664454 3.0799139 0.91404152
-1.7653853 3.0753837 0.9128294
-1.7643238 3.0708487 0.91161633
-1.7632607 3.066309 0.91040182
-1.7614216 3.062007 0.90829992
-1.7594539 3.0577338 0.90605235
-1.757483 3.053453 0.9037993
-1.754998 3.0493188 0.90095949
-1.7517067 3.0454159 0.89719939
-1.748404 3.0414999 0.89342403
-1.743944 3.0379109 0.88832831
-1.7382507 3.0346627 0.88182259
-1.731231 3.0317748 0.87380052
-1.721652 3.0295918 0.86285424
-1.704483 3.0295408 0.84323406
-1.7082756 3.2126946 0.85507774
-1.7222233 3.2024527 0.870965
-1.7306039 3.1943557 0.88050985
-1.7365243 3.1872127 0.88725305
-1.7414179 3.1804767 0.89282799
-1.7447495 3.1743357 0.89662218
-1.7480693 3.1682158 0.90040398
-1.7507727 3.1623347 0.90348291
-1.7527702 3.1567197 0.90575838
-1.7547303 3.1511278 0.90799165
-1.7566837 3.1455476 0.91021585
-1.7577575 3.1402857 0.91143918
-1.7588234 3.1350327 0.91265345
-1.7598867 3.1297846 0.91386414
-1.7608573 3.1245747 0.91497111
-1.761198 3.1195836 0.91535854
-1.761537 3.1145959 0.91574502
-1.7618744 3.1096098 0.91612864
-1.7621653 3.1046398 0.91646004
-1.7618279 3.0998807 0.91607642
-1.7614911 3.0951188 0.91569209
-1.7611531 3.0903559 0.915308
-1.7608163 3.0855918 0.91492367
-1.7597519 3.0810587 0.91371059
-1.7586854 3.0765209 0.91249728
-1.7576188 3.0719788 0.91128111
-1.7564235 3.0674708 0.90992045
-1.7544503 3.0631998 0.90767193
-1.7524714 3.0589209 0.90541911
-1.7504904 3.0546317 0.90316248
-1.7476189 3.0506048 0.89989161
-1.7443085 3.0466948 0.89612055
-1.7409863 3.0427728 0.89233685
-1.735817 3.039382 0.88644838
-1.7302086 3.0360937 0.88005972
-1.7222579 3.0334618 0.87100458
-1.7117276 3.0315359 0.8590095
-1.6846173 3.0343089 0.82812977
-1.7041166 3.2130506 0.85784197
-1.7169688 3.2032247 0.87243271
-1.7248621 3.1953096 0.88139415
-1.7308066 3.1881547 0.88814449
-1.7354817 3.1814957 0.89345241
-1.7388453 3.1753378 0.89727068
-1.7421802 3.1692076 0.90105605
-1.7446668 3.1633987 0.90388012
-1.7466747 3.1577747 0.90615892
-1.7486782 3.1521606 0.90843391
-1.750486 3.1466267 0.91048598
-1.7515569 3.1413589 0.91170192
-1.7526271 3.1360967 0.91291714
-1.753696 3.1308408 0.91413116
-1.7545114 3.1256757 0.91505718
-1.7548527 3.1206777 0.9154439
-1.7551932 3.1156807 0.91583157
-1.7555343 3.1106858 0.91621828
-1.7556638 3.1057627 0.91636586
-1.7553225 3.1009958 0.91597772
-1.7549812 3.0962267 0.915591
-1.7546415 3.0914569 0.91520405
-1.7541034 3.0867476 0.91459465
-1.7530329 3.0822077 0.91337919
-1.7519619 3.0776627 0.91216326
-1.7508893 3.0731127 0.9109447
-1.749436 3.0686758 0.90929461
-1.7474518 3.0643978 0.90704203
-1.7454627 3.0601108 0.9047842
-1.7434703 3.0558157 0.90252256
-1.7402084 3.0518959 0.89881802
-1.7369088 3.0479708 0.89507151
-1.733494 3.0440638 0.89119601
-1.7278867 3.0407898 0.88482904
-1.7222471 3.0374968 0.87842584
-1.713233 3.0351589 0.86819124
-1.7011807 3.0336528 0.85450792
-1.6999536 3.2134066 0.8606081
-1.7114649 3.2040877 0.87363386
-1.719105 3.1962657 0.88228106
-1.725075 3.1890986 0.88903713
-1.7294393 3.1825497 0.89397597
-1.7328901 3.1763556 0.89788055
-1.7362738 3.1702027 0.90171051
-1.7385434 3.1644669 0.90427804
-1.7405601 3.1588328 0.90656042
-1.742573 3.1532097 0.90883803
-1.744229 3.1477227 0.91071177
-1.7453208 3.1424408 0.91194797
-1.7464111 3.1371648 0.9131813
-1.7474864 3.1318989 0.91439843
-1.7481441 3.1267817 0.91514349
-1.7484871 3.1217747 0.91553164
-1.7488296 3.1167698 0.91591835
-1.7491722 3.1117659 0.9163065
-1.7491462 3.1068869 0.91627669
-1.7488029 3.1021118 0.9158895
-1.7484595 3.0973358 0.91550064
-1.7481165 3.0925579 0.9151125
-1.7473974 3.0878987 0.91429901
-1.7463181 3.0833519 0.91307735
-1.7452388 3.0787997 0.9118557
-1.7441571 3.0742438 0.91063094
-1.7424624 3.0698738 0.90871286
-1.7404718 3.065587 0.90646029
-1.738477 3.0612919 0.90420294
-1.7362008 3.0570719 0.9016273
-1.7328947 3.0531538 0.8978858
-1.7295763 3.0492229 0.89413142
-1.7255673 3.0454819 0.88959384
-1.7199233 3.0422029 0.88320684
-1.7138715 3.0390167 0.87635851
-1.7045825 3.0367417 0.86584616
-1.6906981 3.0357449 0.85013342
-1.6945019 3.2142456 0.86192751
-1.7059476 3.2049537 0.87483835
-1.713239 3.1972609 0.88306189
-1.7193286 3.1900458 0.88993168
-1.7233806 3.1836066 0.89450264
-1.7268465 3.1774018 0.89841199
-1.7303004 3.1712186 0.90230775
-1.7324023 3.1655378 0.90467834
-1.7344279 3.1598938 0.9069643
-1.7364494 3.1542618 0.90924406
-1.7379481 3.1488228 0.91093493
-1.7390459 3.1435328 0.91217184
-1.7401407 3.1382477 0.9134078
-1.7412351 3.1329677 0.9146421
-1.7417527 3.1278918 0.91522646
-1.7421007 3.1228747 0.91561913
-1.742445 3.1178617 0.91600704
-1.742789 3.1128497 0.91639495
-1.742606 3.1080148 0.916188
-1.7422605 3.1032319 0.9157989
-1.7419155 3.0984478 0.91541004
-1.7415713 3.0936618 0.91502094
-1.7406751 3.0890517 0.91401029
-1.7395908 3.084497 0.9127872
-1.7385048 3.0799379 0.91156268
-1.7374179 3.0753727 0.91033602
-1.7354941 3.0710649 0.90816689
-1.7334929 3.066771 0.90590954
-1.7314878 3.062469 0.90364742
-1.7288773 3.058341 0.90070248
-1.7255514 3.0544169 0.89695096
-1.722214 3.0504799 0.89318705
-1.7176006 3.046906 0.88798332
-1.7120266 3.0435929 0.88169503
-1.7052524 3.0406029 0.87405396
-1.6958981 3.0383298 0.8635025
-1.6885819 3.2152586 0.86273646
-1.7004189 3.2058208 0.87604475
-1.7072649 3.1982908 0.88374352
-1.7135313 3.1910076 0.89078879
-1.717304 3.1846676 0.89503002
-1.7207851 3.1784518 0.89894438
-1.7241042 3.1723118 0.90267587
-1.7261822 3.1666327 0.90501237
-1.7282567 3.1609659 0.90734434
-1.7303081 3.1553168 0.90965056
-1.7316482 3.1499279 0.91115737
-1.7327502 3.1446278 0.91239691
-1.733851 3.1393337 0.91363502
-1.7349507 3.1340458 0.91487098
-1.7353325 3.1290078 0.91529989
-1.7356813 3.1239839 0.91569185
-1.7360308 3.1189599 0.91608572
-1.7363805 3.1139388 0.91647792
-1.7360449 3.1091459 0.91610146
-1.735697 3.1043558 0.91570997
-1.7353499 3.0995638 0.91531968
-1.7350032 3.09477 0.91492963
-1.7339287 3.0902078 0.91372132
-1.7328384 3.0856459 0.91249561
-1.7317467 3.0810788 0.91126871
-1.7305088 3.0765529 0.90987635
-1.7285008 3.0722609 0.90761971
-1.7264884 3.0679598 0.90535665
-1.7244723 3.0636508 0.90308928
-1.7215226 3.0596149 0.8997736
-1.7182035 3.0556769 0.89604092
-1.7148805 3.051724 0.89230633
-1.7098091 3.048274 0.88660288
-1.7042205 3.044951 0.8803196
-1.6965866 3.0421989 0.87173653
-1.687448 3.039844 0.86146307
-1.6397617 3.2374907 0.81548858
-1.6826451 3.2162747 0.86354709
-1.6948762 3.2066908 0.87725377
-1.7012761 3.1993237 0.88442659
-1.7075691 3.1920276 0.89147854
-1.7111726 3.1857448 0.89551806
-1.7147059 3.1795046 0.89947772
-1.7178485 3.1734228 0.90299964
-1.7199371 3.1677337 0.90533948
-1.7220201 3.1620579 0.9076736
-1.7240994 3.1563919 0.91000414
-1.7253177 3.1510386 0.9113698
-1.7264359 3.1457267 0.91262269
-1.7275422 3.1404238 0.91386199
-1.7285392 3.1351638 0.91497922
-1.7288902 3.1301289 0.91537285
-1.7292407 3.1250958 0.915766
-1.7295923 3.1200638 0.91616058
-1.7298219 3.1150739 0.91641712
-1.7294719 3.1102779 0.9160254
-1.7291224 3.1054797 0.91563296
-1.7287717 3.1006799 0.91524076
-1.7282779 3.0959249 0.91468692
-1.7271807 3.0913608 0.91345835
-1.726083 3.0867918 0.91222763
-1.7249837 3.0822189 0.91099596
-1.7235341 3.0777488 0.9093709
-1.7215211 3.0734477 0.90711522
-1.7195034 3.069139 0.9048543
-1.7174823 3.0648208 0.90258932
-1.7142575 3.0608578 0.89897466
-1.710927 3.0569119 0.89524293
-1.7075856 3.0529528 0.89149761
-1.7020018 3.0496418 0.8852396
-1.6963792 3.046315 0.87893939
-1.6881771 3.0437138 0.86974645
-1.6780016 3.0416429 0.85834312
-1.6581774 3.0422878 0.83612776
-1.6347058 3.2381527 0.81745839
-1.6766927 3.2172937 0.86436009
-1.6887245 3.2077837 0.87780046
-1.6952689 3.2003598 0.88511038
-1.7013292 3.1931458 0.89187956
-1.7049477 3.1868527 0.89592218
-1.7085528 3.1805816 0.8999486
-1.7115741 3.1745377 0.90332413
-1.7136717 3.1688387 0.90566683
-1.7157645 3.1631527 0.908005
-1.7178106 3.1574917 0.91029119
-1.7189403 3.1521628 0.91155243
-1.7200685 3.1468399 0.91281223
-1.721195 3.1415229 0.91407061
-1.7220721 3.1362967 0.91505098
-1.7224267 3.1312528 0.91544652
-1.72278 3.1262107 0.91584086
-1.7231326 3.1211708 0.91623449
-1.7232282 3.1162179 0.91634226
-1.7228768 3.111414 0.91594934
-1.7225244 3.1066079 0.91555572
-1.7221727 3.1018 0.9151628
-1.7215269 3.0970848 0.91444206
-1.7204256 3.0925138 0.91321111
-1.7193217 3.0879369 0.91197824
-1.7182164 3.0833559 0.91074395
-1.7165725 3.0789378 0.90890741
-1.7145472 3.0746298 0.90664577
-1.7125192 3.0703139 0.90438008
-1.7103086 3.0660429 0.90191031
-1.7069707 3.0621037 0.8981812
-1.7036216 3.058152 0.89444017
-1.699785 3.0543289 0.89015436
-1.6942334 3.0509939 0.88395429
-1.6887031 3.047627 0.87777615
-1.6798275 3.045207 0.86786127
-1.6685967 3.0434229 0.85531664
-1.6296413 3.2388158 0.81943178
-1.6706104 3.2183576 0.86504722
-1.6824679 3.2089128 0.87824988
-1.6891246 3.2014437 0.88566208
-1.6950684 3.1942687 0.89227986
-1.6987026 3.1879637 0.89632654
-1.7023246 3.1816816 0.90035939
-1.7052252 3.1756756 0.90358806
-1.707372 3.1699526 0.9059782
-1.7094905 3.1642509 0.90833664
-1.7114091 3.1586299 0.91047287
-1.7125425 3.1532907 0.91173577
-1.7136757 3.1479588 0.91299748
-1.7148073 3.1426327 0.91425753
-1.715574 3.1374369 0.91511106
-1.7159319 3.1323838 0.91550922
-1.7162905 3.1273327 0.9159081
-1.7166483 3.1222827 0.91630626
-1.7166131 3.1173658 0.9162674
-1.7162583 3.1125529 0.91587329
-1.715905 3.107739 0.91547894
-1.7155504 3.1029229 0.91508484
-1.7147529 3.098249 0.91419649
-1.713645 3.0936699 0.91296244
-1.7125354 3.0890858 0.91172719
-1.7114241 3.084497 0.91049075
-1.709583 3.0801308 0.90844059
-1.7075477 3.0758169 0.90617418
-1.7055087 3.0714929 0.90390444
-1.7030103 3.0672998 0.90112281
-1.6996703 3.06335 0.89740372
-1.6963375 3.059381 0.89369345
-1.6921146 3.055661 0.88899064
-1.6865807 3.0523078 0.88282895
-1.6805706 3.049068 0.87613726
-1.6715806 3.046665 0.86612773
-1.6594863 3.0451128 0.85266232
-1.6245918 3.2394707 0.8214345
-1.664221 3.2195327 0.86541533
-1.6761928 3.2100449 0.87870097
-1.6828797 3.2025607 0.88612247
-1.6887388 3.1954136 0.89262486
-1.6924398 3.1890788 0.89673185
-1.6960781 3.1827848 0.90077019
-1.6988413 3.1768227 0.90383673
-1.7009976 3.1710896 0.90622973
-1.7031503 3.1653688 0.90861821
-1.7049782 3.1597719 0.91064787
-1.706125 3.1544228 0.91191959
-1.7072639 3.1490808 0.91318369
-1.7084007 3.1437459 0.9144454
-1.709054 3.1385808 0.91517115
-1.7094142 3.1335196 0.91557002
-1.7097733 3.1284597 0.91596937
-1.7101326 3.1234007 0.91636872
-1.7099857 3.1185126 0.91620493
-1.7096279 3.1136928 0.9158082
-1.7092712 3.1088719 0.91541219
-1.7089133 3.1040478 0.91501546
-1.707974 3.0994108 0.91397262
-1.7068582 3.0948248 0.91273355
-1.7057419 3.0902338 0.91149545
-1.7046242 3.0856378 0.91025448
-1.7026036 3.0813179 0.90801215
-1.7005653 3.0769939 0.90574956
-1.6985221 3.0726619 0.90348291
-1.6957912 3.0685289 0.90045118
-1.6924508 3.0645669 0.89674497
-1.6891003 3.0605919 0.89302635
-1.6844597 3.0569849 0.88787651
-1.6788938 3.053628 0.88169837
-1.6723547 3.050529 0.87444139
-1.6635265 3.0480628 0.86464477
-1.6195526 3.2401206 0.82346034
-1.6578116 3.2207117 0.86578369
-1.6698642 3.2111926 0.8791163
-1.6766164 3.2036817 0.88658452
-1.6823187 3.1965878 0.8928926
-1.6860838 3.1902237 0.89705706
-1.6898134 3.1838918 0.90118265
-1.6924381 3.1779728 0.90408635
-1.6946032 3.1722298 0.90648246
-1.6967659 3.1664987 0.90887427
-1.6984947 3.1609306 0.91078711
-1.6996555 3.1555676 0.91207027
-1.7008154 3.1502128 0.91335297
-1.7019727 3.1448627 0.91463375
-1.702512 3.1397288 0.91523123
-1.7028744 3.1346588 0.91563177
-1.7032349 3.1295898 0.91603088
-1.7035973 3.1245227 0.91643143
-1.7033362 3.1196647 0.91614199
-1.7029765 3.1148367 0.91574478
-1.7026179 3.1100068 0.91534758
-1.7022581 3.105176 0.91495037
-1.7011902 3.1005709 0.91376805
-1.7000694 3.0959768 0.91252899
-1.6989465 3.0913787 0.91128635
-1.6976812 3.0868187 0.9098866
-1.6956356 3.0824969 0.90762448
-1.6935868 3.0781658 0.90535831
-1.6915336 3.0738268 0.90308571
-1.6885619 3.069757 0.89979863
-1.6852033 3.065789 0.89608359
-1.6818328 3.0618088 0.89235616
-1.6768055 3.0583048 0.88679457
-1.6713307 3.0549078 0.88073826
-1.6643181 3.0519328 0.87298083
-1.6554358 3.0494668 0.8631556
-1.6155651 3.2403736 0.82665992
-1.6513834 3.2218947 0.86615276
-1.6633255 3.2124157 0.8793211
-1.6703331 3.2048068 0.88704705
-1.6758778 3.1977658 0.8931601
-1.6796606 3.1913898 0.89733171
-1.6834297 3.1850367 0.90148783
-1.6859977 3.1791317 0.90431905
-1.6881897 3.1733737 0.90673637
-1.6903625 3.1676326 0.90913153
-1.6919911 3.1620917 0.9109273
-1.6931577 3.1567206 0.91221309
-1.6943219 3.1513548 0.91349816
-1.6954861 3.1459959 0.91478038
-1.6959407 3.1408839 0.91528225
-1.6963079 3.1358037 0.91568661
-1.6966739 3.1307259 0.91609049
-1.6970243 3.1256537 0.9164772
-1.6966634 3.1208198 0.91607928
-1.6963029 3.115984 0.91568136
-1.6959417 3.111146 0.91528273
-1.6955073 3.1063299 0.91480494
-1.6943824 3.1017339 0.91356468
-1.6932557 3.0971329 0.91232157
-1.6921275 3.0925269 0.91107726
-1.6906993 3.0880098 0.90950298
-1.6886427 3.0836809 0.90723538
-1.686583 3.0793428 0.90496397
-1.6845183 3.0749969 0.90268874
-1.6813078 3.0709889 0.89914727
-1.6779666 3.067004 0.89546394
-1.6746161 3.0630069 0.89177012
-1.6693006 3.059576 0.88590932
-1.6637943 3.0561748 0.87983727
-1.6477151 3.2271137 0.86957979
-1.6446462 3.2231877 0.86620569
-1.6567669 3.2136416 0.87952757
-1.6638386 3.2060046 0.8872993
-1.6694164 3.1989467 0.8934288
-1.6732173 3.1925588 0.89760637
-1.6770041 3.1861937 0.90176821
-1.6794796 3.1803157 0.9044888
-1.681706 3.1745377 0.90693665
-1.6839285 3.1687727 0.90937853
-1.685467 3.1632566 0.91106868
-1.6866379 3.1578767 0.91235685
-1.6878078 3.1525018 0.91364288
-1.6889749 3.1471338 0.91492486
-1.689343 3.1420438 0.91532922
-1.689712 3.1369548 0.91573429
-1.6900792 3.1318679 0.91613865
-1.6903427 3.1268177 0.91642785
-1.6899784 3.1219759 0.91602802
-1.6896141 3.1171329 0.915627
-1.6892495 3.1122868 0.91522598
-1.6886976 3.1075008 0.9146204
-1.6875658 3.1028967 0.91337585
-1.6864319 3.0982888 0.91213059
-1.6852973 3.0936759 0.91088343
-1.6837194 3.0891948 0.90914965
-1.6816611 3.0848567 0.90688729
-1.6795995 3.0805099 0.90462089
-1.6774909 3.0761659 0.90230346
-1.674144 3.0721889 0.89862561
-1.6707866 3.0681989 0.89493513
-1.6672733 3.0642378 0.89107466
-1.6617651 3.0608518 0.88502049
-1.6562459 3.0574419 0.87895465
-1.6382718 3.2294235 0.86668158
-1.6376956 3.2245567 0.86605072
-1.6501865 3.2148716 0.87973404
-1.6572912 3.2072186 0.8875165
-1.6628306 3.2001698 0.89358497
-1.6667502 3.1937327 0.89787912
-1.6705585 3.1873548 0.90205121
-1.6729403 3.1815038 0.90465927
-1.6751773 3.1757157 0.90711093
-1.6774108 3.1699398 0.90955687
-1.6788917 3.1644368 0.91117907
-1.6800833 3.1590407 0.91248441
-1.6812735 3.1536527 0.9137888
-1.682353 3.1483068 0.91497135
-1.6827233 3.1432078 0.91537595
-1.6830928 3.1381097 0.9157815
-1.6834636 3.1330137 0.91618776
-1.6836386 3.1279848 0.91637897
-1.6832728 3.1231349 0.91597819
-1.6829069 3.1182828 0.91557717
-1.6825395 3.1134298 0.91517496
-1.6818879 3.1086669 0.9144609
-1.6807492 3.1040559 0.91321421
-1.6796098 3.0994408 0.91196585
-1.6784699 3.0948198 0.91071701
-1.67676 3.0903709 0.90884352
-1.6746907 3.0860257 0.90657711
-1.6726182 3.0816717 0.90430689
-1.6703196 3.0773768 0.90178943
-1.666954 3.0733938 0.89810252
-1.6635783 3.069397 0.89440465
-1.6597381 3.0655239 0.89019775
-1.6543007 3.0621028 0.8842411
-1.6488557 3.0586588 0.87827682
-1.6406791 3.0559819 0.86931944
-1.6287708 3.2317476 0.86376524
-1.6447299 3.2207417 0.88119149
-1.6434398 3.2161596 0.87978268
-1.6507239 3.2084367 0.88773537
-1.6561978 3.2014067 0.89371371
-1.6601365 3.1949568 0.89801335
-1.6640604 3.1885307 0.90229797
-1.6663802 3.1826959 0.90483069
-1.6686273 3.1768968 0.90728521
-1.6708715 3.1711097 0.90973496
-1.6722834 3.1656237 0.9112761
-1.6734815 3.1602187 0.9125843
-1.6746786 3.15482 0.91389155
-1.6757019 3.1494858 0.91500878
-1.6760759 3.1443768 0.91541791
-1.6764522 3.1392698 0.91582894
-1.6768248 3.1341639 0.91623569
-1.6769118 3.1291559 0.91633081
-1.6765437 3.1242979 0.91592789
-1.6761758 3.1194377 0.91552639
-1.6758077 3.1145768 0.91512489
-1.6750529 3.109838 0.91430092
-1.6739092 3.1052198 0.91305161
-1.6727636 3.1005969 0.91180182
-1.6716177 3.0959678 0.91055059
-1.6697736 3.0915518 0.90853715
-1.6676946 3.087199 0.90626669
-1.665611 3.082839 0.90399098
-1.66312 3.0785918 0.90127158
-1.6597619 3.074595 0.89760542
-1.6564064 3.0705819 0.89394093
-1.6523585 3.0667579 0.88952112
-1.6469121 3.0633278 0.88357377
-1.6414371 3.0598798 0.87759566
-1.6329944 3.057267 0.86837721
-1.6097915 3.0537238 0.84304237
-1.6103187 3.2373967 0.85115147
-1.6367977 3.2224727 0.87996984
-1.6455719 3.2141807 0.88951921
-1.6440566 3.2096868 0.88787007
-1.649544 3.2026467 0.89384294
-1.653502 3.1961837 0.89814949
-1.6574376 3.1897478 0.90243363
-1.6597419 3.1839108 0.90494156
-1.6620412 3.1780868 0.907444
-1.6643114 3.1722836 0.90991426
-1.665653 3.1668148 0.91137552
-1.6668572 3.1613998 0.91268492
-1.6680591 3.1559918 0.9139936
-1.6690218 3.1506708 0.91504145
-1.669399 3.1455529 0.91545224
-1.6697755 3.1404369 0.91586208
-1.6701531 3.1353219 0.91627288
-1.670171 3.1303289 0.91629171
-1.6697991 3.1254628 0.91588712
-1.6694281 3.1205959 0.915483
-1.6690562 3.115726 0.91507816
-1.6682057 3.1110089 0.91415334
-1.6670566 3.1063828 0.91290164
-1.6659048 3.1017528 0.91164947
-1.6647532 3.0971169 0.91039586
-1.6627936 3.0927269 0.90826344
-1.6607137 3.0883648 0.90599847
-1.6586285 3.0839939 0.90372944
-1.6560028 3.079778 0.90087223
-1.6526401 3.0757718 0.89721251
-1.6492679 3.071753 0.89354205
-1.6449702 3.067992 0.88886404
-1.6394937 3.064558 0.88290453
-1.6338584 3.0611439 0.87677169
-1.6254642 3.0585029 0.86763549
-1.615469 3.056282 0.85675764
-1.6015203 3.05514 0.84157586
-1.6288297 3.2242117 0.87874317
-1.6376579 3.2158947 0.88831925
-1.6435633 3.2086837 0.89472604
-1.642822 3.2039077 0.89392281
-1.6468451 3.1974158 0.89828682
-1.6507452 3.1909857 0.90251756
-1.6530609 3.1851377 0.90502977
-1.6553714 3.1793027 0.90753627
-1.6576772 3.1734798 0.91003776
-1.6589892 3.1680138 0.91145945
-1.6602108 3.1625857 0.91278648
-1.6614187 3.1571679 0.91409636
-1.6623206 3.1518598 0.91507483
-1.6626992 3.1467328 0.91548538
-1.663079 3.1416078 0.91589665
-1.6634567 3.1364849 0.91630626
-1.6634107 3.1315038 0.91625714
-1.6630371 3.1266298 0.91585112
-1.662663 3.1217537 0.9154458
-1.6622899 3.1168768 0.91504121
-1.6613636 3.112175 0.91403556
-1.6602075 3.107542 0.91278243
-1.6590507 3.1029038 0.91152716
-1.6578927 3.0982599 0.91027069
-1.6558316 3.0938919 0.9080348
-1.6537399 3.0895238 0.90576673
-1.6516454 3.085146 0.90349364
-1.6488724 3.080965 0.90048504
-1.6454921 3.0769529 0.89681864
-1.6421003 3.072928 0.89313984
-1.6375895 3.0692189 0.8882463
-1.6322064 3.0657458 0.88240576
-1.6263452 3.0623851 0.87604761
-1.6179044 3.0597439 0.86689067
-1.6079226 3.0575039 0.8560636
-1.593497 3.0564809 0.84041381
-1.6208031 3.2259676 0.87748575
-1.6297076 3.2176147 0.88711405
-1.6361885 3.2101879 0.89412117
-1.6406722 3.2035127 0.89896965
-1.6400874 3.1986787 0.89833784
-1.6440308 3.1922288 0.902601
-1.6463573 3.1863687 0.90511727
-1.6486797 3.1805229 0.90762854
-1.6509962 3.1746888 0.9101336
-1.6522725 3.1692278 0.91151285
-1.653502 3.1637888 0.91284323
-1.6547303 3.1583557 0.9141717
-1.655592 3.1530538 0.91510201
-1.6559758 3.1479168 0.91551709
-1.6563587 3.1427827 0.91593075
-1.6567378 3.137651 0.91634178
-1.6566267 3.1326828 0.91622114
-1.6562512 3.1278009 0.91581583
-1.6558757 3.1229167 0.91540956
-1.6555007 3.118032 0.91500354
-1.6544967 3.1133459 0.91391802
-1.6533346 3.108705 0.91266251
-1.6521721 3.104059 0.91140509
-1.6509421 3.0994289 0.91007519
-1.6488442 3.0950618 0.90780735
-1.6467426 3.0906868 0.90553427
-1.6446366 3.0863028 0.90325713
-1.6417186 3.0821548 0.90010095
-1.638361 3.078125 0.8964715
-1.6349924 3.0740819 0.89282894
-1.6303437 3.0704029 0.88780212
-1.6249313 3.066926 0.8819499
-1.6188018 3.0636311 0.8753221
-1.6105652 3.0609169 0.86641622
-1.6003478 3.0587311 0.85536766
-1.5861342 3.057631 0.83999872
-1.6111836 3.2283037 0.87454557
-1.6217089 3.2193477 0.88588858
-1.6287832 3.2116969 0.89351416
-1.6332929 3.2050056 0.89837384
-1.6374605 3.1984587 0.90286565
-1.6399746 3.1925197 0.90557575
-1.639606 3.1876137 0.90517759
-1.6419654 3.1817467 0.90772128
-1.6442935 3.1759019 0.91022968
-1.6455333 3.1704459 0.91156626
-1.64677 3.1649969 0.91289926
-1.6480043 3.1595538 0.91422987
-1.6488318 3.1542549 0.91512132
-1.6492176 3.1491089 0.91553783
-1.6496031 3.1439657 0.91595268
-1.6499879 3.1388237 0.91636825
-1.6498263 3.1338639 0.91619349
-1.6494479 3.128974 0.91578579
-1.6490695 3.1240819 0.91537809
-1.6486907 3.1191888 0.91496897
-1.647614 3.114517 0.91380978
-1.6464486 3.109869 0.9125526
-1.6452801 3.1052148 0.91129398
-1.6439626 3.1006029 0.90987396
-1.6418648 3.096226 0.90761352
-1.6397645 3.0918398 0.90534854
-1.6376584 3.087446 0.90307903
-1.6346562 3.083313 0.89984298
-1.6312807 3.079278 0.89620519
-1.6278958 3.0752299 0.89255714
-1.6230714 3.0715909 0.88735723
-1.6176419 3.0681059 0.88150644
-1.611474 3.064811 0.87485862
-1.6032555 3.062078 0.86600018
-1.5929544 3.059901 0.85489869
-1.5787437 3.058785 0.83958268
-1.6014194 3.2306848 0.87149429
-1.613642 3.2211008 0.88462472
-1.6213465 3.2132137 0.89290142
-1.6258838 3.2065048 0.89777541
-1.6303148 3.1998558 0.90253544
-1.6328416 3.1939049 0.90525079
-1.6353643 3.1879678 0.90795994
-1.6376886 3.1821117 0.91045618
-1.6389899 3.1766238 0.91185474
-1.6387715 3.1716678 0.91162062
-1.6400135 3.1662078 0.91295505
-1.6412549 3.1607559 0.91428804
-1.6420486 3.1554608 0.91514063
-1.6424365 3.1503057 0.91555738
-1.6428232 3.1451528 0.91597342
-1.6432104 3.1400018 0.91638827
-1.6430082 3.135047 0.91617179
-1.6426282 3.1301489 0.9157629
-1.6422474 3.1252489 0.91535473
-1.6418674 3.120348 0.9149456
-1.6407409 3.1156828 0.91373539
-1.6395674 3.1110268 0.91247535
-1.6383936 3.1063659 0.91121507
-1.6370101 3.1017649 0.90972757
-1.6349018 3.0973809 0.90746379
-1.6327906 3.092989 0.90519476
-1.6306739 3.0885878 0.9029212
-1.627568 3.084476 0.89958429
-1.6241748 3.0804348 0.89593959
-1.6207716 3.0763819 0.89228368
-1.615854 3.0727589 0.88700056
-1.6105063 3.0692389 0.88125634
-1.6041811 3.0659771 0.87446046
-1.5959549 3.0632319 0.86562324
-1.5857913 3.061002 0.85470486
-1.5718319 3.059799 0.83970952
-1.5913363 3.2331767 0.86814666
-1.6055398 3.2228608 0.88335466
-1.6138618 3.2147427 0.8922658
-1.6184356 3.2080138 0.89716363
-1.6229835 3.2013147 0.90203333
-1.6256845 3.1952939 0.90492487
-1.6282189 3.1893437 0.90763903
-1.6306977 3.1834269 0.91029334
-1.6320057 3.1779277 0.91169357
-1.6333127 3.1724358 0.91309333
-1.6346169 3.1669507 0.91449046
-1.6352973 3.1616848 0.91521811
-1.6356957 3.1565168 0.91564512
-1.6356308 3.1515059 0.91557646
-1.6360209 3.1463437 0.91599369
-1.6364095 3.1411848 0.91640973
-1.6361666 3.1362338 0.91614985
-1.6357851 3.1313279 0.91574121
-1.6354029 3.1264198 0.91533184
-1.6350193 3.1215098 0.91492081
-1.6338422 3.1168518 0.91366053
-1.6326635 3.1121888 0.91239858
-1.6314831 3.1075199 0.9111352
-1.6300328 3.102931 0.90958142
-1.627914 3.0985398 0.90731287
-1.6257911 3.094141 0.90504074
-1.6236639 3.0897338 0.90276217
-1.6204727 3.0856369 0.89934564
-1.6171048 3.0815778 0.89573908
-1.6137261 3.077507 0.89212084
-1.608721 3.0738978 0.88676167
-1.6033454 3.070375 0.88100553
-1.5968857 3.0671401 0.87408924
-1.5888786 3.0643189 0.86551547
-1.5786016 3.062108 0.85451126
-1.5651765 3.0607381 0.8401351
-1.5811894 3.2356846 0.86477852
-1.5973604 3.2246437 0.88203812
-1.6063483 3.2162788 0.89162922
-1.6109469 3.2095318 0.89653754
-1.6155255 3.2028148 0.90142512
-1.6184959 3.1966898 0.9045949
-1.6210468 3.1907268 0.90731764
-1.6235895 3.1847777 0.91003084
-1.6249962 3.1792369 0.9115324
-1.6263094 3.1737337 0.91293454
-1.6276217 3.1682377 0.91433454
-1.6284051 3.1629279 0.91517091
-1.6288061 3.1577508 0.91559863
-1.6292076 3.152576 0.91602683
-1.6296084 3.1474028 0.91645455
-1.6295795 3.1423728 0.9164238
-1.6293068 3.1374238 0.91613388
-1.628922 3.1325088 0.91572332
-1.6285365 3.1275938 0.91531134
-1.6281083 3.1226897 0.91485405
-1.6269257 3.1180239 0.91359258
-1.6257434 3.1133518 0.91233015
-1.6245587 3.108676 0.91106606
-1.623054 3.1040928 0.90946007
-1.6209376 3.0996928 0.90720129
-1.6188176 3.095283 0.90493798
-1.6166914 3.0908649 0.90266967
-1.6134531 3.086772 0.89921212
-1.6100678 3.0827079 0.89560008
-1.606672 3.07863 0.89197564
-1.6015613 3.0750418 0.88652134
-1.5962126 3.0714989 0.88081264
-1.5898261 3.0682309 0.87399554
-1.581778 3.0654089 0.86540699
-1.571692 3.0631299 0.85464215
-1.5584981 3.0616798 0.84055972
-1.5292029 3.0646789 0.80929327
-1.5706675 3.2383218 0.86105776
-1.5890913 3.2264538 0.88065767
-1.5983398 3.2179878 0.89049625
-1.6034286 3.2110567 0.89591002
-1.6080329 3.2043228 0.90080857
-1.6112728 3.1980939 0.90425444
-1.6138401 3.1921158 0.90698552
-1.6164007 3.1861539 0.90970993
-1.6179614 3.1805499 0.91137075
-1.6192818 3.1750369 0.91277504
-1.6206005 3.1695299 0.91417789
-1.6214898 3.1641748 0.9151237
-1.621892 3.158989 0.91555262
-1.6222959 3.1538048 0.91598153
-1.6226988 3.1486218 0.91640973
-1.6227176 3.1435678 0.91643071
-1.6224327 3.1386149 0.91612625
-1.6220446 3.1336918 0.9157145
-1.6216578 3.128768 0.91530252
-1.621208 3.1238618 0.91482449
-1.6200211 3.1191878 0.91356134
-1.6188316 3.1145098 0.91229677
-1.6176414 3.1098258 0.91103053
-1.6161025 3.1052439 0.90939331
-1.6139746 3.1008368 0.90713
-1.6118436 3.0964208 0.9048624
-1.6097076 3.091996 0.90259004
-1.6064086 3.0879109 0.89908028
-1.6030066 3.0838408 0.89546061
-1.5995948 3.0797579 0.89183164
-1.594496 3.0761549 0.88640833
-1.5891881 3.072588 0.88076138
-1.5827415 3.069325 0.8739028
-1.5747488 3.0664749 0.86540008
-1.5648758 3.064122 0.85489774
-1.5522604 3.062495 0.84147692
-1.5262244 3.0645618 0.81377935
-1.5807829 3.2282727 0.87927055
-1.5900879 3.2197788 0.88913846
-1.5958619 3.2125938 0.8952601
-1.6005094 3.2058358 0.90018845
-1.6040223 3.1995027 0.90391302
-1.6066024 3.1935129 0.90664983
-1.6091766 3.1875367 0.90937877
-1.6108963 3.1818697 0.91120291
-1.6122255 3.1763449 0.9126122
-1.6135523 3.1708269 0.91401935
-1.6145494 3.1654277 0.91507626
-1.6149552 3.1602318 0.91550589
-1.6153598 3.1550379 0.91593528
-1.6157651 3.1498458 0.91636562
-1.615834 3.1447668 0.91643763
-1.6155334 3.1398089 0.91611886
-1.6151445 3.1348789 0.9157064
-1.6147549 3.1299467 0.91529322
-1.6142848 3.1250379 0.91479564
-1.6130915 3.1203568 0.9135294
-1.6118958 3.1156709 0.91226268
-1.6107006 3.1109788 0.91099453
-1.6091256 3.1063988 0.9093256
-1.6069882 3.1019859 0.90705824
-1.604845 3.0975628 0.90478635
-1.602699 3.0931308 0.90251017
-1.5993707 3.0890448 0.89898133
-1.5959954 3.0849559 0.89540243
-1.5926087 3.0808549 0.89181113
-1.5874732 3.077251 0.88636637
-1.5821378 3.0736809 0.88070798
-1.5757129 3.070401 0.87389517
-1.5678709 3.0674949 0.86558008
-1.558038 3.0651169 0.85515451
-1.5461893 3.063261 0.84258986
-1.5232506 3.064446 0.81826639
-1.5723493 3.2301307 0.87778759
-1.5817988 3.2215786 0.88777399
-1.5882394 3.2141457 0.89458179
-1.5929267 3.2073667 0.89953566
-1.5967426 3.2009177 0.90356803
-1.5993381 3.1949139 0.90631223
-1.6019268 3.1889257 0.90904713
-1.6038053 3.1831946 0.91103363
-1.6051414 3.1776588 0.91244555
-1.6064756 3.1721308 0.91385484
-1.6075847 3.1666837 0.9150269
-1.6079915 3.1614788 0.91545701
-1.6083989 3.1562757 0.91588783
-1.6088064 3.1510749 0.91631842
-1.6089213 3.1459718 0.91643953
-1.608614 3.1410079 0.91611528
-1.608222 3.1360688 0.91570163
-1.60783 3.1311278 0.91528654
-1.6073391 3.1262178 0.9147687
-1.6061425 3.1215279 0.91350365
-1.604944 3.1168339 0.91223693
-1.6037436 3.112134 0.91096854
-1.6021497 3.1075509 0.90928388
-1.6000152 3.1031258 0.9070282
-1.5978758 3.0986919 0.90476704
-1.5957339 3.09425 0.9025023
-1.5923948 3.0901558 0.89897346
-1.5890019 3.0860629 0.89538765
-1.5855987 3.0819559 0.89179039
-1.580426 3.078352 0.88632345
-1.5751481 3.0747538 0.88074613
-1.5688496 3.071425 0.874089
-1.5609705 3.0685179 0.86576104
-1.5515037 3.0660238 0.85575461
-1.5398405 3.0641029 0.84342766
-1.5202773 3.0643289 0.82275128
-1.5621781 3.2326126 0.87450743
-1.573416 3.2234058 0.88634682
-1.5805857 3.2157047 0.89389944
-1.5852995 3.2089078 0.89886522
-1.5894129 3.2023458 0.9031992
-1.5920322 3.1963258 0.90595818
-1.5946443 3.190321 0.90871024
-1.5966895 3.1845238 0.91086388
-1.5980315 3.178978 0.91227818
-1.5993724 3.1734388 0.91369057
-1.6005936 3.1679459 0.91497779
-1.6010041 3.1627309 0.91540956
-1.601413 3.1575189 0.91584015
-1.6018226 3.1523089 0.91627145
-1.601975 3.1471839 0.9164319
-1.601681 3.142206 0.91612267
-1.6012871 3.137259 0.91570711
-1.6008923 3.1323109 0.91529226
-1.60041 3.127388 0.914783
-1.5992064 3.1226919 0.91351604
-1.5980017 3.11799 0.9122467
-1.5967958 3.1132829 0.91097665
-1.5951986 3.108691 0.90929413
-1.5930538 3.104259 0.90703392
-1.5909045 3.0998189 0.90476942
-1.5887499 3.0953698 0.90250063
-1.5853939 3.0912719 0.8989656
-1.581985 3.087172 0.89537382
-1.578583 3.083055 0.89178967
-1.5734992 3.0794139 0.88643384
-1.5682325 3.0758018 0.88088536
-1.5619645 3.0724518 0.8742826
-1.5541732 3.069509 0.86607528
-1.5450056 3.0669169 0.85641694
-1.5334888 3.0649419 0.84428453
-1.5156951 3.0646601 0.82553935
-1.5512862 3.2353468 0.87051773
-1.5649011 3.2252748 0.88481545
-1.572876 3.2172787 0.89318824
-1.5776412 3.2104559 0.89819217
-1.5820563 3.2037797 0.90282869
-1.5846901 3.1977468 0.90559363
-1.5873163 3.1917279 0.90835071
-1.5895383 3.1858618 0.91068387
-1.5908904 3.1803038 0.91210437
-1.5922418 3.1747518 0.91352296
-1.5935793 3.1692119 0.91492844
-1.5939903 3.1639879 0.9153595
-1.5944023 3.1587658 0.9157927
-1.5948133 3.1535459 0.91622376
-1.5950041 3.1484008 0.91642427
-1.5947242 3.1434088 0.91612935
-1.5943279 3.138454 0.91571331
-1.5939317 3.1334968 0.9152987
-1.5934548 3.1285639 0.91479802
-1.5922465 3.1238589 0.9135282
-1.5910358 3.1191499 0.91225767
-1.5898235 3.114435 0.91098475
-1.5882235 3.1098349 0.90930414
-1.5860679 3.105397 0.90704083
-1.5839076 3.10095 0.90477276
-1.581743 3.0964949 0.90249968
-1.5784128 3.0923779 0.89900255
-1.5750315 3.0882599 0.89545298
-1.57164 3.0841289 0.89189172
-1.5665855 3.0804689 0.88658381
-1.5612931 3.076853 0.88102531
-1.5551646 3.073452 0.87459087
-1.5474846 3.0704651 0.86652637
-1.5384896 3.0678129 0.85708213
-1.5272696 3.065742 0.84530067
-1.5105088 3.0651588 0.82770157
-1.5398028 3.2382858 0.86596131
-1.5563469 3.2271528 0.8832767
-1.5650914 3.2188737 0.89242983
-1.5699072 3.2120259 0.89746976
-1.574672 3.2052188 0.90245605
-1.5773199 3.1991718 0.90522742
-1.5799601 3.193141 0.90799117
-1.5823574 3.1872048 0.91050005
-1.5837176 3.1816359 0.91192341
-1.5850749 3.1760738 0.91334438
-1.5864322 3.1705179 0.91476512
-1.586951 3.1652489 0.91530752
-1.5873652 3.160018 0.91574121
-1.5877793 3.154789 0.91617489
-1.5880067 3.149622 0.91641259
-1.587744 3.1446159 0.91613889
-1.5873463 3.1396518 0.91572142
-1.586947 3.1346869 0.91530418
-1.5864789 3.1297419 0.91481352
-1.5852664 3.12503 0.91354561
-1.5840528 3.120312 0.91227531
-1.5828371 3.1155889 0.91100335
-1.5812516 3.110975 0.90934253
-1.5791006 3.1065249 0.90709114
-1.5769451 3.102067 0.90483594
-1.5747855 3.0976009 0.90257597
-1.571481 3.093466 0.89911652
-1.5680828 3.0893431 0.89556026
-1.5646751 3.085207 0.89199352
-1.5596488 3.081527 0.88673282
-1.5544348 3.077878 0.88127542
-1.5484896 3.0744128 0.87505317
-1.5407746 3.071425 0.86697936
-1.5322411 3.0686309 0.85804749
-1.5210342 3.066545 0.84631872
-1.505316 3.0656581 0.82986736
-1.5280657 3.2413077 0.86119604
-1.5476198 3.2290869 0.88159418
-1.5572755 3.2204757 0.89166784
-1.5621185 3.2136106 0.89671946
-1.5669394 3.2067747 0.90174913
-1.5699022 3.2006099 0.90484095
-1.5725732 3.1945589 0.90762663
-1.5751517 3.1885538 0.91031647
-1.5765178 3.1829729 0.91174197
-1.5778832 3.1773999 0.91316581
-1.5792463 3.1718338 0.91458893
-1.5798852 3.1665158 0.91525555
-1.5803015 3.1612749 0.91568971
-1.5807178 3.1560359 0.91612411
-1.5809975 3.1508429 0.91641617
-1.5807531 3.145823 0.91615987
-1.5803516 3.140851 0.91574216
-1.5799515 3.1358769 0.91532421
-1.5795186 3.1309118 0.91487241
-1.5782995 3.1261919 0.9136014
-1.57708 3.1214669 0.91232872
-1.5758593 3.1167369 0.91105509
-1.5743024 3.112103 0.9094317
-1.5721407 3.1076479 0.90717626
-1.5699754 3.103183 0.90491676
-1.5678039 3.0987101 0.90265226
-1.5645249 3.094558 0.8992312
-1.5611105 3.0904288 0.89566922
-1.5577176 3.0862789 0.89212894
-1.5528471 3.0825419 0.88704896
-1.5476248 3.0788851 0.88160014
-1.5417948 3.075377 0.87551904
-1.5341768 3.0723491 0.86757207
-1.5260363 3.069433 0.85907936
-1.5149159 3.067311 0.84747791
-1.5001132 3.0661571 0.8320365
-1.5387719 3.2310576 0.87982368
-1.5487835 3.2223127 0.89023519
-1.554297 3.2152019 0.89596725
-1.5591447 3.2083488 0.90100861
-1.562439 3.2020588 0.90443325
-1.5651243 3.1959949 0.90722585
-1.5678034 3.1899469 0.91001177
-1.5692863 3.1843178 0.91155362
-1.5706635 3.178731 0.91298604
-1.5720348 3.1731539 0.91441202
-1.5727944 3.1677868 0.91520238
-1.5732129 3.1625359 0.91563702
-1.5736315 3.1572878 0.91607165
-1.5740094 3.1520548 0.91646457
-1.5737369 3.1470339 0.91618109
-1.5733347 3.1420538 0.91576266
-1.572932 3.1370718 0.91534519
-1.5725288 3.1320879 0.91492581
-1.57131 3.1273589 0.9136579
-1.5700841 3.1226258 0.91238379
-1.5688574 3.117888 0.91110754
-1.5673299 3.113236 0.9095192
-1.5651577 3.1087739 0.90726042
-1.5629809 3.1043029 0.90499783
-1.5608046 3.099822 0.90273452
-1.5575976 3.095638 0.8994
-1.5542126 3.09149 0.8958807
-1.5508192 3.0873299 0.8923521
-1.5460405 3.0835569 0.88738251
-1.5407932 3.079896 0.88192606
-1.5351892 3.0763121 0.87609982
-1.5276687 3.073246 0.86827898
-1.5198143 3.0702379 0.86011267
-1.508966 3.0680289 0.84883261
-1.4951062 3.066602 0.83442092
-1.4721346 3.0676091 0.81053472
-1.5298791 3.2330389 0.87804437
-1.539958 3.2242627 0.88848972
-1.5463767 3.2168229 0.89514327
-1.5513177 3.2099288 0.9002645
-1.5549476 3.2035139 0.90402555
-1.5576468 3.1974368 0.90682292
-1.5603399 3.1913738 0.90961552
-1.5620158 3.1856709 0.91135192
-1.5634005 3.1800737 0.91278672
-1.5647833 3.1744838 0.91422009
-1.565676 3.1690629 0.91514516
-1.5660975 3.1638029 0.91558242
-1.5665188 3.158545 0.91601825
-1.5669386 3.1532888 0.91645432
-1.5666976 3.1482489 0.9162035
-1.5662935 3.14326 0.9157846
-1.5658882 3.1382699 0.91536498
-1.5654824 3.1332779 0.91494489
-1.5642989 3.1285279 0.91371822
-1.5630703 3.1237869 0.91244459
-1.5618415 3.11904 0.91117072
-1.5603623 3.1143639 0.9096384
-1.5581961 3.1098909 0.9073925
-1.5560255 3.105408 0.90514278
-1.5538499 3.1009169 0.90288782
-1.5507097 3.0967031 0.89963412
-1.5473101 3.09255 0.89611077
-1.5438988 3.0883849 0.89257479
-1.5392115 3.084574 0.88771725
-1.5340536 3.0808768 0.88237095
-1.5286953 3.0772128 0.87681746
-1.5211418 3.0741448 0.86898851
-1.51368 3.0710158 0.86125517
-1.5030024 3.068748 0.85018969
-1.4902828 3.066994 0.83700657
-1.4703856 3.0671461 0.81638408
-1.5183227 3.2359629 0.87355089
-1.531086 3.2262228 0.8867352
-1.5383952 3.2184598 0.89428639
-1.543365 3.2115479 0.89942002
-1.5474033 3.2049818 0.90359187
-1.5501385 3.1988838 0.90641809
-1.5528483 3.1928079 0.90921688
-1.554719 3.1870289 0.91114926
-1.5561101 3.1814208 0.91258693
-1.5575006 3.1758199 0.91402268
-1.5585294 3.1703448 0.91508555
-1.5589521 3.1650748 0.91552258
-1.5593767 3.159807 0.91596103
-1.5597987 3.154542 0.91639757
-1.5596466 3.1494639 0.91623974
-1.5592394 3.1444669 0.91581964
-1.5588326 3.139468 0.91539884
-1.5584254 3.1344678 0.91497874
-1.5573025 3.1296899 0.9138186
-1.5560682 3.1249409 0.91254377
-1.5548327 3.1201868 0.91126704
-1.5534158 3.1154819 0.90980387
-1.5512393 3.111002 0.90755463
-1.5490577 3.106514 0.90530109
-1.5468717 3.102016 0.90304255
-1.5437996 3.0977709 0.89986968
-1.5403833 3.0936141 0.89633989
-1.5369959 3.0894308 0.89284062
-1.5325253 3.085547 0.88822293
-1.5273497 3.0818448 0.88287592
-1.5221474 3.078126 0.87750196
-1.5147135 3.0750139 0.86982131
-1.5073302 3.071852 0.86219525
-1.4970601 3.069459 0.85158539
-1.4854531 3.0673871 0.8395946
-1.4686387 3.066684 0.82222462
-1.5055962 3.2392938 0.86790681
-1.5219498 3.2282708 0.88474512
-1.53038 3.2201047 0.89342594
-1.5353775 3.2131739 0.89857221
-1.5398028 3.2064657 0.90312886
-1.5425539 3.2003539 0.9059608
-1.5452976 3.1942568 0.90878654
-1.5473888 3.1883948 0.91093969
-1.5487936 3.1827729 0.91238594
-1.5501907 3.1771607 0.91382456
-1.551357 3.1716309 0.91502643
-1.5517831 3.1663518 0.91546488
-1.5522089 3.1610739 0.91590309
-1.5526342 3.1557989 0.91634083
-1.5525708 3.1506829 0.91627598
-1.5521629 3.145678 0.91585517
-1.5517526 3.1406708 0.91543412
-1.5513439 3.1356609 0.91501284
-1.5502822 3.1308548 0.91391945
-1.5490425 3.1260979 0.91264296
-1.5478008 3.1213369 0.91136479
-1.5464463 3.1166039 0.90997005
-1.5442591 3.112118 0.90771675
-1.5420671 3.1076219 0.90545964
-1.5398805 3.1031151 0.90320849
-1.5369232 3.0988259 0.90016317
-1.5335391 3.0946488 0.89667869
-1.530143 3.0904598 0.89318275
-1.5258234 3.0865221 0.88873458
-1.5206242 3.0828159 0.88338137
-1.5154686 3.079073 0.87807202
-1.5083778 3.0758529 0.87077117
-1.5009632 3.072691 0.86313701
-1.4913604 3.070101 0.85324907
-1.4806185 3.06778 0.8421874
-1.4650955 3.066714 0.8262043
-1.5127044 3.2303507 0.8826828
-1.5222316 3.2217908 0.89246154
-1.5273433 3.2148118 0.89770627
-1.5321727 3.2079549 0.90266347
-1.5349388 3.201829 0.90550256
-1.5376971 3.1957188 0.90833426
-1.5400124 3.1897707 0.91071033
-1.5414255 3.1841378 0.91215944
-1.542836 3.1785119 0.91360855
-1.5441566 3.1729228 0.91496301
-1.5445852 3.1676338 0.91540265
-1.5450134 3.1623468 0.91584253
-1.5454421 3.1570609 0.91628218
-1.5454712 3.151907 0.91631293
-1.5450602 3.146893 0.91589117
-1.5446494 3.1418769 0.91546941
-1.5442383 3.1368589 0.91504741
-1.5432408 3.1320229 0.91402364
-1.5419991 3.1272578 0.91274953
-1.5407562 3.122488 0.91147304
-1.5394828 3.1177199 0.91016674
-1.5373023 3.1132219 0.90792847
-1.5351171 3.1087151 0.90568662
-1.5329292 3.1041989 0.90344071
-1.5300803 3.099869 0.90051627
-1.52668 3.095686 0.89702606
-1.5232682 3.091491 0.89352512
-1.5191011 3.0874989 0.88924909
-1.5139916 3.0837579 0.88400459
-1.5088627 3.0799971 0.87874031
-1.5020258 3.076695 0.8717227
-1.494694 3.073499 0.86419868
-1.4856482 3.070744 0.85491514
-1.4752972 3.068306 0.84429121
-1.4605579 3.0670149 0.82916355
-1.4369063 3.0680649 0.80488944
-1.5033193 3.2324729 0.88051605
-1.514004 3.2234998 0.89144659
-1.5191641 3.2164948 0.89672542
-1.5242803 3.2095299 0.9019599
-1.527292 3.203311 0.90504026
-1.5300672 3.1971858 0.90787935
-1.5326087 3.1911528 0.91047931
-1.5340285 3.1855087 0.91193175
-1.5354471 3.1798718 0.91338325
-1.5368636 3.1742418 0.91483164
-1.5373564 3.1689219 0.91533637
-1.5377882 3.1636248 0.91577721
-1.5382178 3.15833 0.91621733
-1.5383611 3.1531298 0.91636372
-1.5379479 3.1481068 0.91594124
-1.537535 3.1430829 0.91551876
-1.5371215 3.1380568 0.91509509
-1.5362158 3.133183 0.91416931
-1.5349677 3.1284099 0.9128921
-1.5337181 3.1236329 0.91161394
-1.5324674 3.1188488 0.91033483
-1.5303495 3.1143219 0.90816855
-1.5281549 3.1098089 0.90592241
-1.5259552 3.1052871 0.90367317
-1.5232155 3.100914 0.90087056
-1.5197988 3.0967269 0.89737558
-1.5164185 3.0925131 0.89391661
-1.5125182 3.088434 0.88992715
-1.50739 3.0846879 0.8846817
-1.5022385 3.080924 0.87941122
-1.4957395 3.0775161 0.87276316
-1.4885116 3.074281 0.86536837
-1.4799256 3.071388 0.8565855
-1.469805 3.068876 0.84623313
-1.4561601 3.067277 0.83227491
-1.4360764 3.0673521 0.81172943
-1.4936054 3.2347047 0.87805557
-1.5047061 3.2255769 0.88937402
-1.5109499 3.2181859 0.89573979
-1.5160966 3.2112007 0.9009881
-1.519552 3.2048199 0.90451145
-1.522368 3.1986728 0.90738344
-1.525171 3.192543 0.91024065
-1.5266051 3.1868849 0.91170359
-1.5280313 3.1812358 0.91315746
-1.5294552 3.1755948 0.91460943
-1.5301027 3.1702149 0.9152689
-1.5305352 3.1649079 0.91571045
-1.5309677 3.1596041 0.91615152
-1.5312266 3.154357 0.91641569
-1.5308111 3.1493258 0.91599131
-1.5303957 3.144294 0.91556859
-1.5299802 3.1392589 0.91514444
-1.529166 3.134347 0.91431475
-1.5279119 3.1295669 0.91303539
-1.5266566 3.1247821 0.91175604
-1.5253994 3.1199908 0.91047406
-1.5233734 3.115427 0.9084084
-1.5211678 3.1109071 0.90615964
-1.5189724 3.106374 0.90392041
-1.5163879 3.1019449 0.90128469
-1.5130043 3.097739 0.89783597
-1.5096118 3.093519 0.89437556
-1.5059192 3.08937 0.89061165
-1.5007694 3.0856199 0.88535953
-1.4956601 3.081835 0.88015079
-1.4895704 3.078301 0.8739419
-1.4823117 3.0750649 0.86654043
-1.4743674 3.071985 0.85843945
-1.464303 3.0694489 0.84817743
-1.4519179 3.0674961 0.83554888
-1.4347284 3.066781 0.81802201
-1.4802206 3.2382197 0.87190509
-1.4950182 3.2277839 0.88694453
-1.5026534 3.2198987 0.89470458
-1.5078762 3.2128799 0.90001297
-1.5117807 3.206336 0.90398121
-1.5146129 3.2001739 0.90685868
-1.5174377 3.1940279 0.909729
-1.5191236 3.1882758 0.91144252
-1.5205641 3.1826129 0.91290736
-1.5220041 3.1769578 0.91436982
-1.5228188 3.171514 0.91519856
-1.5232551 3.1661968 0.91564178
-1.5236914 3.160882 0.91608477
-1.5240662 3.1555891 0.91646576
-1.5236487 3.1505489 0.91604233
-1.5232308 3.1455078 0.91561747
-1.522814 3.140465 0.91519332
-1.5220942 3.135514 0.9144628
-1.5208399 3.1307249 0.91318703
-1.5195842 3.1259298 0.91191101
-1.5183258 3.1211309 0.91063213
-1.5164235 3.116519 0.90869904
-1.5142264 3.1119871 0.90646672
-1.5120256 3.1074471 0.90422964
-1.5095906 3.1029639 0.90175438
-1.5061924 3.098753 0.89830112
-1.5027831 3.094528 0.89483619
-1.4993017 3.090308 0.89129853
-1.4942343 3.086525 0.88614845
-1.489157 3.082721 0.88098717
-1.4833848 3.079088 0.87512183
-1.4761636 3.0758319 0.86778307
-1.4688888 3.0725579 0.86038876
-1.458791 3.0700209 0.85012603
-1.4476719 3.0677149 0.83882618
-1.4333797 3.066211 0.82430124
-1.4635756 3.2428658 0.86251903
-1.4852722 3.2300048 0.88449836
-1.4942093 3.2216587 0.89355111
-1.4995217 3.2145998 0.89893317
-1.5039735 3.207859 0.90344262
-1.5068264 3.2016809 0.90633249
-1.5096669 3.1955209 0.90920949
-1.5116112 3.1896729 0.9111793
-1.5130601 3.1839979 0.91264677
-1.5145073 3.1783319 0.91411304
-1.5155027 3.1728189 0.91512179
-1.5159409 3.1674919 0.91556549
-1.5163794 3.162168 0.91600895
-1.516818 3.1568451 0.91645408
-1.5164766 3.151772 0.91610765
-1.5160568 3.146723 0.91568232
-1.5156372 3.1416709 0.91525698
-1.515039 3.136673 0.91465187
-1.5137789 3.131876 0.91337514
-1.5125165 3.127074 0.9120965
-1.5112529 3.122267 0.91081572
-1.5094745 3.1176081 0.90901542
-1.5072677 3.11307 0.90678024
-1.5050566 3.1085229 0.90453959
-1.5027723 3.103987 0.90222597
-1.4993579 3.0997701 0.89876699
-1.4959834 3.095526 0.89534783
-1.4925985 3.091269 0.89192033
-1.4877338 3.0874181 0.88699245
-1.4826348 3.083611 0.88182616
-1.4772182 3.0798681 0.87633991
-1.4701412 3.0765629 0.86917043
-1.4630184 3.0732369 0.86195493
-1.4534879 3.0705349 0.8523016
-1.443424 3.067935 0.8421061
-1.4293692 3.066359 0.82786894
-1.4086468 3.066494 0.80687642
-1.4751606 3.2323458 0.88172483
-1.4857266 3.2234268 0.8923924
-1.4910717 3.2163467 0.89778996
-1.4960592 3.209414 0.90282607
-1.4989548 3.2032118 0.90574932
-1.501843 3.197027 0.90866518
-1.5040715 3.1910748 0.91091609
-1.5055275 3.185389 0.91238594
-1.5069826 3.1797099 0.91385484
-1.5081596 3.174129 0.91504383
-1.5086005 3.168793 0.91548777
-1.5090411 3.1634579 0.91593313
-1.5094812 3.1581259 0.91637826
-1.5092788 3.1529989 0.91617322
-1.5088575 3.1479409 0.91574788
-1.5084355 3.1428809 0.91532207
-1.507961 3.137835 0.91484308
-1.5066946 3.1330309 0.91356349
-1.5054255 3.128222 0.91228318
-1.5041554 3.1234069 0.91100121
-1.5025036 3.118701 0.90933275
-1.5002866 3.114156 0.90709424
-1.4980812 3.1095982 0.90486741
-1.4958761 3.1050291 0.9026413
-1.4926107 3.100759 0.89934397
-1.4892216 3.0965099 0.89592171
-1.4858222 3.092247 0.89248967
-1.4812162 3.0883131 0.88783884
-1.4761467 3.0844879 0.88271976
-1.4711196 3.080627 0.87764502
-1.4641037 3.0772951 0.87056112
-1.4569929 3.073957 0.86338162
-1.4482057 3.0710421 0.8545084
-1.4384151 3.0683591 0.84462333
-1.4253566 3.0665071 0.83143902
-1.4074516 3.0658832 0.81336021
-1.4648218 3.2347589 0.87876725
-1.4766953 3.2253778 0.89071584
-1.4825826 3.218102 0.89664173
-1.4879346 3.211036 0.90202785
-1.4910245 3.2047589 0.90513778
-1.4939284 3.1985588 0.90806007
-1.496465 3.1924949 0.91061258
-1.4979377 3.1867938 0.91209507
-1.4994092 3.1811008 0.91357565
-1.5007873 3.1754448 0.91496253
-1.5012307 3.1700978 0.91540909
-1.5016756 3.1647539 0.91585565
-1.5021195 3.159411 0.91630244
-1.5020564 3.1542311 0.91623926
-1.5016332 3.149164 0.91581345
-1.5012088 3.1440949 0.91538715
-1.5007861 3.139024 0.91496062
-1.499593 3.1341879 0.91376114
-1.4983253 3.129369 0.91248441
-1.4970555 3.1245451 0.91120625
-1.495559 3.119782 0.90970087
-1.4933515 3.1152251 0.90747929
-1.4911404 3.1106601 0.90525317
-1.4889243 3.1060839 0.903023
-1.4858444 3.1017511 0.89992428
-1.4824409 3.097496 0.89649796
-1.4790254 3.0932291 0.89306164
-1.4747672 3.089186 0.88877583
-1.4697413 3.0853391 0.88371801
-1.4646935 3.081475 0.87863803
-1.4580555 3.078028 0.87195826
-1.4511101 3.074635 0.86496735
-1.4429142 3.0715499 0.85671926
-1.4333222 3.0688052 0.84706616
-1.4213428 3.0666552 0.83501053
-1.4062593 3.065273 0.81983089
-1.4493947 3.2389288 0.87075043
-1.466383 3.2277648 0.88779211
-1.4738836 3.219924 0.89531589
-1.4793947 3.2127948 0.90084362
-1.4830618 3.2063119 0.90452266
-1.4859822 3.2000968 0.90745211
-1.4888275 3.1939209 0.91030574
-1.490309 3.1882088 0.91179156
-1.4917874 3.1825039 0.91327477
-1.4932642 3.176806 0.91475701
-1.4938259 3.171412 0.91531968
-1.4942725 3.1660569 0.91576743
-1.4947186 3.1607039 0.9162147
-1.494822 3.155462 0.91631985
-1.4943972 3.1503859 0.91589308
-1.4939716 3.145309 0.91546679
-1.4935458 3.140229 0.91503882
-1.4925039 3.1353369 0.9139936
-1.4912295 3.1305108 0.9127152
-1.4899535 3.125679 0.91143584
-1.488616 3.1208601 0.91009402
-1.4863982 3.116297 0.9078691
-1.4841759 3.1117251 0.90564013
-1.4819498 3.1071429 0.90340686
-1.4790578 3.1027451 0.90050602
-1.4756861 3.0984721 0.89712358
-1.4723086 3.0941849 0.89373612
-1.4683669 3.0900421 0.88978219
